# .PCD v0.7 - Point Cloud Data file format
VERSION 0.7
FIELDS x y z rgb
SIZE 4 4 4 4
TYPE F F F F
COUNT 1 1 1 1
WIDTH 1059
HEIGHT 1
VIEWPOINT 0 0 0 1 0 0 0
POINTS 1059
DATA ascii
-49.713009 -69.571739 143.2785 3.6878364e-39
-52.756268 -77.273407 159.13959 8.6624838e-39
-52.42416 -80.542664 165.87242 2.3509886e-38
-53.568657 -86.533447 178.21004 2.3050708e-38
-52.327442 -89.111038 183.51842 5.1582875e-39
-50.347542 -90.654083 186.69623 3.3176007e-39
-48.51157 -92.659706 190.82668 7.0962034e-39
-52.268772 -106.29996 218.91791 1.5293308e-38
-50.157719 -109.06819 224.6189 3.1328564e-39
-46.204201 -107.94378 222.30324 3.040295e-39
-43.668148 -110.21628 226.98331 5.1593525e-39
-43.353874 -118.98348 245.03879 5.3433795e-39
-42.203728 -126.91572 261.37473 6.9110695e-39
-42.261398 -140.54425 289.4418 9.5811302e-39
-39.931076 -148.51839 305.86401 1.4938603e-38
-35.202942 -148.51839 305.86401 2.3509886e-38
-29.634127 -144.42134 297.42639 2.3509886e-38
-24.864943 -143.43214 295.38922 2.3509886e-38
-19.757433 -139.60728 287.51218 2.3509886e-38
-16.175692 -147.47249 303.71005 2.3509886e-38
-11.480857 -147.47249 303.71005 2.3509886e-38
-6.6917706 -145.42426 299.49185 2.3509886e-38
-2.0765612 -146.44121 301.58621 2.3509886e-38
2.5674891 -145.42426 299.49185 2.3509886e-38
7.1474833 -144.42134 297.42639 2.3509886e-38
11.353679 -139.60728 287.51218 2.3509886e-38
13.619072 -120.35111 247.85533 2.3509886e-38
22.829964 -157.45183 324.26187 2.3509886e-38
25.363369 -143.43214 295.38922 2.3509886e-38
30.345268 -145.42426 299.49185 2.3509886e-38
34.733692 -144.42134 297.42639 2.3509886e-38
35.868252 -131.70499 271.23792 2.3509886e-38
46.836166 -153.97862 317.10904 2.3509886e-38
51.738129 -153.97862 317.10904 2.3509886e-38
53.493416 -145.42426 299.49185 2.3509886e-38
60.650135 -151.74706 312.51324 2.3509886e-38
64.545609 -149.57924 308.04877 2.3509527e-38
71.874458 -155.11922 319.45798 2.3509527e-38
79.767067 -161.08533 331.74484 2.3509883e-38
86.221764 -163.60229 336.92834 2.3509883e-38
91.430092 -163.60229 336.92834 2.3509859e-38
96.638428 -163.60229 336.92834 1.3907118e-38
102.6487 -164.8905 339.58133 9.3978096e-39
101.50409 -155.11922 319.45798 1.3909635e-38
100.48754 -146.44121 301.58621 1.03169e-38
103.69921 -144.42134 297.42639 9.7647984e-39
101.96787 -135.98112 280.04434 7.4609951e-39
104.26572 -133.38277 274.69318 8.8439323e-39
106.47741 -130.88184 269.54266 8.8428421e-39
110.64407 -130.88184 269.54266 8.2903942e-39
113.39333 -129.26601 266.215 9.1190731e-39
118.97741 -130.88184 269.54266 8.935758e-39
123.14407 -130.88184 269.54266 9.2112687e-39
125.73901 -129.26601 266.215 9.4878584e-39
129.85423 -129.26601 266.215 9.4889346e-39
135.64407 -130.88184 269.54266 1.0687475e-38
139.81075 -130.88184 269.54266 1.0687478e-38
143.97742 -130.88184 269.54266 1.1335005e-38
150.01932 -132.53856 272.95462 1.0688205e-38
152.31075 -130.88184 269.54266 9.2177721e-39
-66.104424 -37.614891 80.012665 2.3509886e-38
-65.844849 -38.181595 81.218132 2.332621e-38
-64.346992 -38.038322 80.913376 2.3234379e-38
-63.096214 -38.038322 80.913376 6.1760366e-39
-62.313072 -38.325947 81.525192 5.0707709e-39
-61.168465 -38.398537 81.679596 4.8867341e-39
-59.567387 -38.181595 81.218132 4.6097927e-39
-58.093086 -38.038322 80.913376 4.241013e-39
-57.598763 -38.544537 81.990166 4.4257574e-39
-56.546341 -38.691654 82.303108 3.6860329e-39
-55.80658 -39.064407 83.096008 3.7803866e-39
-54.208714 -38.839897 82.618446 3.8718633e-39
-53.651031 -39.367821 83.741417 3.7796691e-39
-52.356537 -39.367821 83.741417 4.0566217e-39
-50.668495 -39.064407 83.096008 5.439545e-39
-50.354187 -39.831879 84.728539 5.8065296e-39
-50.329868 -40.875862 86.949249 7.1002014e-39
-50.200306 -41.889313 89.105019 2.332621e-38
-55.600662 -47.704533 101.47489 4.9728173e-39
-54.675274 -48.272446 102.68292 3.5934688e-39
-53.98777 -49.090622 104.42331 3.0417425e-39
-52.373566 -49.090622 104.42331 3.0417397e-39
-50.759357 -49.090622 104.42331 4.8852978e-39
-48.790741 -48.736603 103.67026 7.0972684e-39
-47.530949 -49.090622 104.42331 6.2678609e-39
-57.4655 -61.437656 130.68736 7.2809955e-39
-56.12561 -62.191494 132.29088 2.3050703e-38
-56.689011 -65.191086 138.67148 2.3509886e-38
-55.801365 -66.692192 141.86456 2.3509876e-38
-53.963406 -67.133865 142.80406 5.5299329e-39
-51.585091 -66.9123 142.33276 4.0558888e-39
-49.878719 -67.581421 143.75609 3.7789502e-39
-52.369774 -74.265297 157.97372 7.0980265e-39
-52.023975 -77.383308 164.60622 2.2958873e-38
-53.348209 -83.433853 177.47665 2.3509886e-38
-52.105713 -85.908585 182.7408 5.989116e-39
-50.130524 -87.389771 185.89149 3.5941904e-39
-48.94471 -90.510834 192.53049 7.0000674e-39
-52.004791 -102.3961 217.81226 2.3508068e-38
-50.685692 -106.70751 226.98331 3.8707773e-39
-46.92992 -106.14883 225.79491 3.3168819e-39
-46.612068 -113.90128 242.28555 5.0667954e-39
-44.362103 -117.87457 250.73737 2.9488182e-39
-42.985279 -125.15078 266.215 5.3433907e-39
-41.156525 -132.51259 281.87469 5.0682247e-39
-39.099178 -140.79463 299.49185 9.8703891e-39
-35.709461 -145.85919 310.26495 2.3234379e-38
-29.431152 -138.86594 295.38922 2.3509886e-38
-24.528931 -136.98936 291.39749 2.3418047e-38
-20.438725 -139.82364 297.42639 2.3509886e-38
-16.175692 -142.77765 303.71005 2.3509886e-38
-11.3214 -140.79463 299.49185 2.3509886e-38
-6.6917706 -140.79463 299.49185 2.3509886e-38
-2.2160318 -151.3017 321.84201 2.3509886e-38
2.640846 -144.81734 308.04877 2.3509886e-38
7.0026021 -136.98936 291.39749 2.3509886e-38
11.909453 -141.77921 301.58621 2.3509886e-38
15.190503 -129.96428 276.45404 2.3509886e-38
19.589582 -130.80275 278.23761 2.3509886e-38
24.852697 -136.06998 289.4418 2.3509886e-38
30.772665 -142.77765 303.71005 2.3509886e-38
33.353546 -134.26773 285.60812 2.3509886e-38
37.032803 -131.65211 280.04434 2.3509886e-38
45.825314 -145.85919 310.26495 2.3509886e-38
52.905151 -152.4393 324.26187 2.3509886e-38
55.417641 -145.85919 310.26495 2.3509527e-38
58.941681 -142.77765 303.71005 2.3509886e-38
64.087837 -143.79027 305.86401 2.3509886e-38
72.410835 -151.3017 321.84201 2.3509886e-38
80.385414 -157.16609 334.3165 2.3509886e-38
84.895271 -155.95712 331.74484 2.3509886e-38
88.659485 -153.59415 326.71838 2.3232944e-38
96.638428 -158.39395 336.92834 2.1843128e-38
102.6487 -159.64116 339.58133 1.1605834e-38
102.26158 -151.3017 321.84201 1.40933e-38
101.19521 -142.77765 303.71005 1.1054818e-38
103.69921 -139.82364 297.42639 1.1053737e-38
102.63433 -132.51259 281.87469 7.9226921e-39
105.61109 -130.80275 278.23761 7.001826e-39
107.82523 -128.31915 272.95462 7.8312195e-39
111.33995 -127.51212 271.23792 8.4758659e-39
114.81075 -126.71516 269.54266 9.2123505e-39
119.72569 -127.51212 271.23792 8.6591739e-39
123.14407 -126.71516 269.54266 9.396739e-39
126.52 -125.92812 267.8685 9.5804071e-39
131.47742 -126.71516 269.54266 1.0225055e-38
135.64407 -126.71516 269.54266 1.0503805e-38
139.81075 -126.71516 269.54266 1.0135387e-38
145.79991 -128.31915 272.95462 1.0597804e-38
151.94264 -129.96428 276.45404 9.7655243e-39
-65.860039 -36.243549 79.716873 2.3509886e-38
-66.218971 -37.13591 81.679596 2.3509527e-38
-64.956345 -37.13591 81.679596 2.2775193e-38
-63.453362 -36.995773 81.371376 6.8210375e-39
-62.431091 -37.13591 81.679596 4.8863796e-39
-61.75325 -37.490936 82.460472 4.8867341e-39
-59.905838 -37.13591 81.679596 4.4254014e-39
-58.866188 -37.277111 81.990166 4.2413661e-39
-58.040131 -37.562759 82.618446 4.5186761e-39
-56.438633 -37.348114 82.146339 3.5949107e-39
-55.914314 -37.852818 83.256424 3.4116054e-39
-54.839046 -37.999535 83.579124 3.964059e-39
-53.651031 -38.073322 83.741417 3.9636988e-39
-52.458397 -38.147392 83.904335 3.6878392e-39
-50.766312 -37.852818 83.256424 5.4395562e-39
-50.157108 -38.371349 84.396927 5.9891258e-39
-49.728317 -39.059284 85.910019 5.8065548e-39
-48.985783 -39.531773 86.949249 1.908413e-38
-56.803562 -47.134037 103.67026 7.0882441e-39
-55.46767 -47.36174 104.17108 3.2272142e-39
-54.118809 -47.591652 104.67677 3.1339382e-39
-52.500683 -47.591652 104.67677 3.0417397e-39
-50.882561 -47.591652 104.67677 4.1477328e-39
-49.026447 -47.36174 104.17108 6.7281258e-39
-47.878738 -47.823807 105.18739 6.8203214e-39
-56.77729 -58.705868 129.12224 5.9909251e-39
-55.445297 -59.417454 130.68736 2.2316024e-38
-57.055927 -63.455536 139.56902 2.3509527e-38
-55.618412 -64.287735 141.39943 2.3509879e-38
-54.142685 -65.142059 143.2785 6.1702703e-39
-51.585091 -64.712082 142.33276 4.0558888e-39
-49.878719 -65.3592 143.75609 3.8715032e-39
-51.800537 -71.04261 156.25662 7.0980125e-39
-53.452087 -76.893173 169.12482 2.3142544e-38
-54.698799 -82.733162 181.96974 2.3417687e-38
-52.327442 -83.437279 183.51842 1.0494089e-38
-50.130524 -84.516205 185.89149 3.7793048e-39
-48.94471 -87.534645 192.53049 6.4504795e-39
-51.743458 -98.531456 216.71773 2.3509507e-38
-51.224903 -104.29659 229.39803 4.2391941e-39
-47.678802 -104.29659 229.39803 3.3168819e-39
-47.141754 -111.40773 245.03879 5.9883943e-39
-44.621532 -114.66526 252.20367 3.3176035e-39
-43.522594 -122.5485 269.54266 5.3441067e-39
-41.979656 -130.7184 287.51218 3.77786e-39
-37.787125 -131.5957 289.4418 2.1576307e-38
-34.710594 -137.1172 301.58621 2.3509167e-38
-20.58066 -136.16499 299.49185 2.3509886e-38
-15.841022 -135.22594 297.42639 2.3509886e-38
-11.166312 -134.29973 295.38922 2.3509886e-38
-6.8829637 -140.05544 308.04877 2.3509886e-38
-2.0338922 -134.29973 295.38922 2.3509886e-38
2.2963877 -121.78733 267.8685 2.3509886e-38
7.0026021 -132.48486 291.39749 2.3509886e-38
11.993322 -138.08282 303.71005 2.3509886e-38
15.190503 -125.69077 276.45404 2.3509886e-38
20.242567 -130.7184 287.51218 2.3509886e-38
21.040068 -111.40773 245.03879 2.3509886e-38
28.560251 -128.15529 281.87469 2.3509886e-38
33.134113 -128.99843 283.72913 2.3509886e-38
36.793884 -126.50168 278.23761 2.3509886e-38
48.255444 -148.54364 326.71838 2.3509886e-38
49.55201 -138.08282 303.71005 2.341769e-38
53.493416 -136.16499 299.49185 2.3142544e-38
59.359707 -139.06213 305.86401 2.3509886e-38
66.936188 -145.24266 319.45798 2.3509883e-38
72.410835 -146.32657 321.84201 2.3509886e-38
76.812729 -145.24266 319.45798 2.3509886e-38
84.895271 -150.82892 331.74484 2.3509886e-38
87.336212 -146.32657 321.84201 2.3509168e-38
93.709991 -148.54364 326.71838 2.3509524e-38
100.27988 -150.82892 331.74484 1.7500221e-38
100.02228 -143.12233 314.79437 1.4184058e-38
100.48754 -137.1172 301.58621 1.1883137e-38
102.28834 -133.38612 293.37979 1.2619982e-38
100.01944 -124.89019 274.69318 9.3953054e-39
103.60581 -124.09975 272.95462 5.4373842e-39
106.47741 -122.5485 269.54266 6.0809613e-39
109.2781 -121.03555 266.215 8.1085225e-39
114.09763 -121.78733 267.8685 8.6602571e-39
117.50855 -121.03555 266.215 9.0283208e-39
120.87762 -120.29301 264.58176 9.212712e-39
124.2056 -119.55951 262.96848 9.0301285e-39
129.85423 -121.03555 266.215 9.5807813e-39
133.96945 -121.03555 266.215 9.0283236e-39
138.08469 -121.03555 266.215 8.6606271e-39
143.97742 -122.5485 269.54266 8.8457344e-39
148.14407 -122.5485 269.54266 9.9509917e-39
148.59584 -119.55951 262.96848 1.0688561e-38
-67.971817 -35.470211 80.761848 2.3509886e-38
-66.598656 -35.403912 80.610893 2.3509886e-38
-66.093788 -35.80547 81.525192 2.277483e-38
-64.956345 -35.873283 81.679596 2.2958832e-38
-63.693718 -35.873283 81.679596 7.4689026e-39
-62.549557 -35.941353 81.834587 4.6094284e-39
-61.990307 -36.355267 82.777023 4.6094284e-39
-60.59441 -36.285618 82.618446 4.5172369e-39
-59.660145 -36.495361 83.096008 4.3328429e-39
-58.040131 -36.285618 82.618446 4.6105186e-39
-56.654461 -36.21624 82.460472 3.8714976e-39
-56.45929 -36.922211 84.067894 3.3190539e-39
-55.159744 -36.922211 84.067894 3.8718633e-39
-53.860199 -36.922211 84.067894 4.2392039e-39
-52.25507 -36.707546 83.579124 3.6874721e-39
-51.361229 -36.994324 84.232086 5.0725659e-39
-50.453312 -37.285618 84.895332 5.6228656e-39
-49.140976 -37.285618 84.895332 5.7143382e-39
-49.084743 -38.264835 87.124908 2.130362e-38
-59.075706 -47.352734 107.81707 6.0791284e-39
-56.700287 -46.768131 106.48599 3.2272128e-39
-55.327415 -47.000233 107.01446 3.0417425e-39
-52.885777 -46.310741 105.44456 2.9495441e-39
-51.006363 -46.085384 104.93146 3.3186909e-39
-49.869652 -46.538315 105.96272 6.1753149e-39
-48.710377 -47.000233 107.01446 6.6384385e-39
-47.173172 -47.117149 107.28067 5.4402792e-39
-57.901737 -59.94017 136.47731 2.1948682e-38
-57.055927 -61.298038 139.56902 2.341805e-38
-55.801365 -62.306229 141.86456 1.7611156e-38
-53.608383 -62.306229 141.86456 4.5175859e-39
-52.627213 -63.774727 145.20818 4.1473586e-39
-50.896652 -64.425491 146.6899 3.77823e-39
-50.698399 -67.167 152.93201 6.0831207e-39
-57.270092 -79.584427 181.20515 2.2591531e-38
-56.609673 -82.712196 188.32677 2.3509883e-38
-53.698463 -82.712196 188.32677 1.2807251e-38
-50.566444 -82.352577 187.50795 3.779302e-39
-48.51157 -83.81015 190.82668 4.977499e-39
-50.723885 -93.305878 212.44743 2.3234364e-38
-51.775707 -101.83383 231.86467 4.6061816e-39
-47.176922 -99.689964 226.98331 3.776781e-39
-47.141754 -107.61985 245.03879 6.909629e-39
-44.621532 -110.76662 252.20367 3.5019948e-39
-43.522594 -118.38184 269.54266 4.8849292e-39
-40.365055 -121.41727 276.45404 3.9611723e-39
-36.560272 -122.99411 280.04434 1.502859e-38
20.797159 -129.73352 295.38922 2.3509886e-38
22.858345 -116.92033 266.215 2.3509886e-38
24.827946 -107.61985 245.03879 2.3509886e-38
29.801096 -112.07748 255.18832 2.3509886e-38
32.403706 -107.61985 245.03879 2.341805e-38
46.494297 -138.25615 314.79437 2.3234379e-38
48.863785 -131.53537 299.49185 2.3325856e-38
51.698334 -127.12143 289.4418 2.1024218e-38
64.382454 -145.70071 331.74484 2.3509883e-38
70.0495 -146.83018 334.3165 2.3509886e-38
69.806129 -136.26686 310.26495 2.3509886e-38
76.812729 -140.3044 319.45798 2.3509886e-38
84.895271 -145.70071 331.74484 2.3509886e-38
88.659485 -143.49313 326.71838 2.3508809e-38
93.005402 -142.41423 324.26187 2.3418047e-38
97.286461 -141.35144 321.84201 2.3416597e-38
100.02228 -138.25615 314.79437 1.5376116e-38
99.789711 -131.53537 299.49185 1.1975693e-38
102.28834 -128.85098 293.37979 1.3360061e-38
100.01944 -120.64391 274.69318 1.0043912e-38
102.31075 -118.38184 269.54266 1.0601808e-38
105.81606 -117.64655 267.8685 6.1735185e-39
108.60768 -116.20303 264.58176 8.0177828e-39
112.01048 -115.49447 262.96848 1.0043917e-38
116.07552 -115.49447 262.96848 1.0687845e-38
120.87762 -116.20303 264.58176 1.0319425e-38
123.45284 -114.7945 261.37473 1.0226867e-38
127.49325 -114.7945 261.37473 1.1058069e-38
132.33568 -115.49447 262.96848 9.9531638e-39
138.94235 -117.64655 267.8685 9.2145211e-39
140.46576 -115.49447 262.96848 1.0136121e-38
144.53081 -115.49447 262.96848 9.0315676e-39
151.36472 -117.64655 267.8685 1.1519045e-38
231.55904 -170.64049 388.52997 1.1798883e-38
275.02826 -175.38049 399.32248 7.645036e-39
-67.354034 -34.545231 81.525192 2.3509527e-38
-65.844849 -34.415115 81.218132 2.3509856e-38
-64.467949 -34.350426 81.065468 2.2315636e-38
-63.453362 -34.480049 81.371376 2.0091398e-38
-62.549557 -34.676331 81.834587 4.3335617e-39
-62.349323 -35.278816 83.256424 4.2406472e-39
-61.180431 -35.347054 83.417465 4.4250385e-39
-59.660145 -35.210842 83.096008 4.2413661e-39
-57.929157 -34.941544 82.460472 4.2410102e-39
-56.981312 -35.143127 82.936211 3.7796691e-39
-56.45929 -35.622665 84.067894 3.4105222e-39
-55.375633 -35.762089 84.396927 3.8711487e-39
-53.755413 -35.55336 83.904335 4.0558917e-39
-52.458397 -35.55336 83.904335 3.7796691e-39
-51.361229 -35.692238 84.232086 5.0704107e-39
-50.552826 -36.044235 85.062775 5.714334e-39
-49.927231 -36.548855 86.253654 5.8983651e-39
-48.304073 -36.330868 85.73922 7.1952094e-39
-59.522121 -46.0313 108.63181 9.5882951e-39
-56.840633 -45.23373 106.74957 3.5938387e-39
-54.918594 -45.010902 106.22372 3.0417397e-39
-52.756786 -44.571774 105.18739 3.1339354e-39
-51.255783 -44.680748 105.44456 2.950263e-39
-49.992485 -45.010902 106.22372 6.0841983e-39
-48.831547 -45.458775 107.28067 6.912866e-39
-47.173172 -45.458775 107.28067 5.3469948e-39
-59.793949 -59.720348 140.93735 1.9462308e-38
-57.99435 -60.113247 141.86456 2.3234376e-38
-55.801365 -60.113247 141.86456 7.5560858e-39
-53.785309 -60.311638 142.33276 4.5161439e-39
-51.755901 -60.511345 142.80406 3.6871063e-39
-50.896652 -62.157913 146.6899 3.7782258e-39
-49.642181 -63.452869 149.74593 5.5306672e-39
-58.658894 -82.689713 195.14401 2.3509164e-38
-54.653103 -81.219673 191.67479 1.2079397e-38
-51.234722 -80.504082 189.98602 3.5038011e-39
-48.51157 -80.860298 190.82668 4.2406332e-39
-49.504559 -87.857819 207.34052 2.1765011e-38
-52.055576 -98.780685 233.118 4.5139817e-39
-47.678802 -97.204399 229.39803 3.4108754e-39
-47.141754 -103.83197 245.03879 7.0954594e-39
-44.105675 -105.63252 249.28802 3.5019948e-39
-43.522594 -114.21516 269.54266 4.1484544e-39
-40.889275 -118.66511 280.04434 3.2261338e-39
-35.410576 -114.9335 271.23792 1.0606819e-38
20.940588 -126.03053 297.42639 2.3509168e-38
28.191732 -117.89953 278.23761 2.3509886e-38
28.944742 -105.02544 247.85533 2.3509886e-38
32.403706 -103.83197 245.03879 2.2775199e-38
45.825314 -131.4707 310.26495 2.341805e-38
49.55201 -128.69315 303.71005 2.3142544e-38
55.417641 -131.4707 310.26495 2.3509521e-38
64.382454 -140.57251 331.74484 2.341805e-38
65.481056 -132.42339 312.51324 2.2865961e-38
72.410835 -136.37631 321.84201 2.3509883e-38
79.767067 -140.57251 331.74484 2.3509883e-38
84.895271 -140.57251 331.74484 2.3509886e-38
84.194618 -131.4707 310.26495 2.3418047e-38
92.311333 -136.37631 321.84201 2.3509883e-38
96.565819 -135.36612 319.45798 2.3417654e-38
99.297478 -132.42339 312.51324 2.2022109e-38
100.48754 -127.79319 301.58621 9.4889374e-39
104.41934 -126.90574 299.49185 8.4740792e-39
101.96787 -118.66511 280.04434 9.3992613e-39
102.31075 -114.21516 269.54266 1.2075118e-38
106.47741 -114.21516 269.54266 7.5542795e-39
107.94544 -111.42943 262.96848 1.0595658e-38
112.69766 -112.11304 264.58176 1.0872602e-38
116.78764 -112.11304 264.58176 1.1056627e-38
120.87762 -112.11304 264.58176 1.1609801e-38
124.2056 -111.42943 262.96848 1.1425407e-38
128.27065 -111.42943 262.96848 1.105699e-38
133.96945 -112.8051 266.215 1.1518692e-38
133.15309 -108.77635 256.70731 1.0320148e-38
139.61446 -110.7541 261.37473 1.0690374e-38
139.42972 -107.49663 253.68723 1.0504541e-38
150.43036 -112.8051 266.215 1.1427939e-38
-67.844765 -32.911701 80.610893 2.341805e-38
-66.848557 -33.035198 80.913376 2.350952e-38
-66.218971 -33.34803 81.679596 2.341805e-38
-64.346992 -33.035198 80.913376 2.3418022e-38
-63.096214 -33.035198 80.913376 2.3504433e-38
-62.668472 -33.474831 81.990166 4.3335617e-39
-62.590988 -34.123566 83.579124 4.056256e-39
-61.180431 -34.057564 83.417465 4.5172327e-39
-59.660145 -33.926319 83.096008 4.1484502e-39
-58.488319 -33.991814 83.256424 4.056256e-39
-57.091103 -33.926319 83.096008 4.2406458e-39
-56.680264 -34.457455 84.396927 3.1346542e-39
-55.922825 -34.797943 85.230888 3.6874735e-39
-54.821987 -34.936031 85.569099 4.0562546e-39
-53.077984 -34.660946 84.895332 4.0558945e-39
-51.461739 -34.457455 84.396927 4.2410102e-39
-50.954834 -35.005486 85.73922 5.6232202e-39
-50.228603 -35.428089 86.7743 5.5302987e-39
-48.985783 -35.499516 86.949249 6.5480477e-39
-59.223766 -44.129723 108.08729 1.3920032e-38
-56.700287 -43.475952 106.48599 3.4112495e-39
-55.190468 -43.583565 106.74957 3.0417397e-39
-53.540302 -43.583565 106.74957 3.0417397e-39
-51.762012 -43.475952 106.48599 2.7658717e-39
-50.115921 -43.475952 106.48599 5.9909251e-39
-49.075706 -44.019402 107.81707 6.6362903e-39
-47.173172 -43.8004 107.28067 5.1615161e-39
-57.537575 -55.370316 135.61896 1.6329467e-38
-56.871876 -56.799225 139.1188 1.0963342e-38
-55.436653 -57.541698 140.93735 5.2519111e-39
-54.142685 -58.497543 143.2785 6.1774603e-39
-51.585091 -58.11142 142.33276 3.6863861e-39
-50.045536 -58.888828 144.23688 3.3183238e-39
-50.16473 -61.781612 151.3222 4.7934567e-39
-55.40765 -71.576263 175.3123 1.4288532e-38
-57.616066 -78.256714 191.67479 2.3509527e-38
-55.143269 -78.958565 193.39384 1.1890326e-38
-51.461426 -77.910446 190.82668 3.9611723e-39
-48.94471 -78.606071 192.53049 4.1452146e-39
-49.504559 -84.652695 207.34052 2.0479314e-38
-52.33849 -95.694351 234.38493 4.2381151e-39
-47.426537 -93.16275 228.18428 3.4105194e-39
-44.60725 -94.665375 231.86467 7.187655e-39
-43.108936 -99.478867 243.65439 3.5019948e-39
-43.522594 -110.0485 269.54266 3.9647792e-39
-40.625473 -113.59845 278.23761 3.4097992e-39
-37.286633 -116.60768 285.60812 1.2175535e-38
37.348022 -150.49367 368.60538 2.341805e-38
32.284519 -112.87025 276.45404 2.3234379e-38
33.547363 -103.57506 253.68723 2.3417691e-38
49.763428 -137.56062 336.92834 2.341805e-38
55.844326 -139.74413 342.2764 2.3509883e-38
60.180092 -137.56062 336.92834 2.3418047e-38
65.903297 -138.64378 339.58133 2.341805e-38
70.596764 -137.56062 336.92834 2.3418047e-38
84.997696 -144.3259 353.4986 2.3509883e-38
88.291084 -140.86208 345.01462 2.3509883e-38
83.593231 -125.76971 308.04877 2.3509876e-38
93.005402 -132.38918 324.26187 2.3509862e-38
101.05725 -136.49426 334.3165 2.2762584e-38
98.583107 -126.67453 310.26495 2.3038064e-38
100.48754 -123.13119 301.58621 1.3906045e-38
104.41934 -122.27611 299.49185 8.7517339e-39
103.99372 -116.60768 285.60812 1.0318346e-38
103.60581 -111.44152 272.95462 9.4007004e-39
103.25082 -106.7137 261.37473 9.3056251e-39
104.1356 -103.57506 253.68723 9.2170336e-39
108.05717 -103.57506 253.68723 1.2255534e-38
111.32389 -102.96936 252.20367 1.2255171e-38
115.22253 -102.96936 252.20367 1.1886388e-38
120.53088 -104.18793 255.18832 1.0780401e-38
125.96638 -105.43569 258.24448 1.0596015e-38
127.66502 -103.57506 253.68723 1.0136477e-38
129.30473 -101.77896 249.28802 1.0229393e-38
132.39302 -101.19402 247.85533 9.2159602e-39
136.22444 -101.19402 247.85533 1.0320504e-38
140.86543 -101.77896 249.28802 1.0228317e-38
-66.114662 -30.858093 78.555244 2.2590425e-38
-65.376663 -31.084576 79.131798 2.0935208e-38
-65.721085 -31.84416 81.065468 2.341805e-38
-64.589355 -31.904131 81.218132 2.3142542e-38
-63.333866 -31.904131 81.218132 2.3509806e-38
-62.907665 -32.33033 82.303108 3.9647778e-39
-62.469921 -32.768074 83.417465 3.5952764e-39
-62.020161 -33.217831 84.562408 4.7934595e-39
-60.475811 -33.088074 84.232086 4.1484502e-39
-58.943481 -32.959324 83.904335 3.9640604e-39
-57.758835 -33.023575 84.067894 4.056256e-39
-56.680264 -33.152824 84.396927 3.1342983e-39
-56.256359 -33.680107 85.73922 3.503085e-39
-55.040401 -33.747196 85.910019 3.8718647e-39
-53.499237 -33.613281 85.569099 4.1480901e-39
-51.765648 -33.34861 84.895332 3.8718675e-39
-50.453312 -33.34861 84.895332 5.5306672e-39
-50.329868 -34.15543 86.949249 5.5299427e-39
-49.283871 -34.363274 87.478355 5.8076086e-39
-46.978691 -33.680107 85.73922 1.2457138e-38
-55.736931 -41.11916 104.67677 3.6863692e-39
-55.465046 -42.142025 107.28067 3.1339354e-39
-53.940853 -42.247116 107.5482 2.9495441e-39
-51.762012 -41.829861 106.48599 2.7658717e-39
-50.239971 -41.933399 106.74957 5.5299469e-39
-48.953323 -42.247116 107.5482 6.6348512e-39
-47.056118 -42.037453 107.01446 5.4381002e-39
-57.537575 -53.27388 135.61896 5.2540831e-39
-56.689011 -54.472969 138.67148 5.9894761e-39
-56.17091 -56.096336 142.80406 6.8210347e-39
-55.811466 -58.017445 147.69461 9.6772789e-39
-52.275192 -56.659176 144.23688 3.7785789e-39
-49.878719 -56.47031 143.75609 3.0424558e-39
-49.815151 -59.028198 150.2677 3.8715004e-39
-56.323479 -70.004517 178.21004 1.1981468e-38
-54.468971 -71.181061 181.20515 2.2681182e-38
-54.897091 -75.629883 192.53049 1.5206485e-38
-51.920902 -75.629883 192.53049 3.2268498e-39
-49.164192 -75.969025 193.39384 3.409432e-39
-49.267696 -81.057861 206.34846 1.8807956e-38
-51.498833 -90.594086 230.62476 4.2363046e-39
-47.176922 -89.163651 226.98331 3.226847e-39
-44.60725 -91.081146 231.86467 6.7266768e-39
-43.353874 -96.25621 245.03879 3.4097964e-39
-43.252266 -105.22418 267.8685 3.5034367e-39
-41.701645 -112.19267 285.60812 3.5949135e-39
-37.787125 -113.69862 289.4418 8.8540147e-39
37.669987 -146.04391 371.78299 2.341769e-38
34.029629 -114.46685 291.39749 2.341805e-38
35.644073 -105.88184 269.54266 2.3509883e-38
57.384853 -152.62247 388.52997 2.341805e-38
56.745041 -136.62172 347.797 2.3509521e-38
64.881538 -131.32631 334.3165 2.028949e-38
77.234062 -144.79567 368.60538 2.3050697e-38
81.651329 -133.39444 339.58133 2.3509886e-38
86.221764 -132.35229 336.92834 2.3509527e-38
83.000366 -120.1496 305.86401 2.350952e-38
90.953812 -124.56686 317.10904 2.3509527e-38
94.46656 -122.76154 312.51324 2.3417327e-38
100.02228 -123.65762 314.79437 2.3508788e-38
100.48754 -118.46918 301.58621 2.3509853e-38
102.28834 -115.24553 293.37979 1.1511489e-38
103.99372 -112.19267 285.60812 1.0134667e-38
104.9341 -108.59675 276.45404 1.4106294e-38
103.8804 -103.29935 262.96848 8.1063785e-39
105.37531 -100.83984 256.70731 1.0965868e-38
108.69656 -100.24316 255.18832 1.2071145e-38
114.67702 -102.05478 259.80017 1.1978584e-38
117.28008 -100.83984 256.70731 1.1056625e-38
122.70915 -102.05478 259.80017 1.0227227e-38
123.74345 -99.653488 253.68723 9.7669746e-39
127.66502 -99.653488 253.68723 9.3996354e-39
129.30473 -97.925392 249.28802 7.4646118e-39
133.15829 -97.925392 249.28802 7.8333915e-39
137.80844 -98.494728 250.73737 1.0227953e-38
140.05586 -97.362602 247.85533 1.0045005e-38
136.81085 -92.57428 235.66573 1.0875482e-38
-228.06232 -98.632889 261.37473 2.3509869e-38
-210.02054 -92.46833 245.03879 2.3509507e-38
-65.474937 -30.476454 80.761848 2.3234376e-38
-71.008179 -33.694466 89.289497 2.3233614e-38
-65.556107 -31.724028 84.067894 2.0191097e-38
-62.907665 -31.058065 82.303108 5.0675114e-39
-63.079979 -31.78599 84.232086 3.7803866e-39
-63.134296 -32.483887 86.08149 4.6090682e-39
-61.192917 -32.162899 85.230888 4.1484544e-39
-59.522491 -31.973333 84.728539 3.9640604e-39
-58.212734 -31.973333 84.728539 4.1491705e-39
-57.014992 -32.036274 84.895332 3.3194084e-39
-56.480934 -32.483887 86.08149 3.4108866e-39
-54.930977 -32.354725 85.73922 3.7796719e-39
-53.712383 -32.419178 85.910019 4.1480901e-39
-52.176487 -32.290527 85.569099 3.6874735e-39
-50.954834 -32.354725 85.73922 5.2547992e-39
-50.329868 -32.811344 86.949249 5.3466305e-39
-49.687012 -33.281036 88.193924 6.3568265e-39
-58.346375 -40.183769 106.48599 1.3640576e-38
-55.872543 -39.597145 104.93146 4.7898511e-39
-55.603363 -40.584606 107.5482 2.950263e-39
-54.075706 -40.686066 107.81707 3.1328564e-39
-52.54039 -40.788036 108.08729 2.6729572e-39
-50.489922 -40.48365 107.28067 4.7012639e-39
-49.075706 -40.686066 107.81707 6.2671476e-39
-47.409039 -40.686066 107.81707 5.8047247e-39
-59.213425 -52.668049 139.56902 4.9778479e-39
-57.427628 -53.011162 140.47827 4.9778451e-39
-56.545383 -54.248089 143.75609 2.1575484e-38
-55.620983 -55.544117 147.19054 1.4390038e-38
-52.984005 -55.167549 146.19264 3.7782258e-39
-50.552753 -54.981171 145.69875 3.4097992e-39
-49.470409 -56.312897 149.22778 3.226131e-39
-56.091694 -66.972946 177.47665 6.269656e-39
-54.015064 -67.810112 179.69511 2.1210721e-38
-53.698463 -71.067368 188.32677 2.3416198e-38
-52.388657 -73.308228 194.26498 3.6856672e-39
-49.385654 -73.308228 194.26498 3.5019948e-39
-48.800705 -77.129982 204.39255 1.263115e-38
-54.102707 -91.429359 242.28555 3.9604478e-39
-47.426537 -86.108078 228.18428 3.6863833e-39
-47.411133 -92.996727 246.43901 5.8061667e-39
-44.105675 -94.071831 249.28802 3.4090775e-39
-43.252266 -101.0834 267.8685 3.2261338e-39
-41.701645 -107.77766 285.60812 3.5934688e-39
-38.563572 -111.46867 295.38922 1.282095e-38
32.130283 -119.6649 317.10904 2.3509886e-38
34.029629 -109.96234 291.39749 2.3509886e-38
37.520077 -107.0686 283.72913 2.3509879e-38
49.763428 -127.14396 336.92834 2.3509886e-38
61.997917 -120.55131 319.45798 2.3509859e-38
70.0495 -126.15835 334.3165 2.3417673e-38
86.634392 -145.30737 385.06097 2.3509886e-38
75.142891 -117.93063 312.51324 2.3509886e-38
80.557556 -118.79144 314.79437 2.3509886e-38
81.839523 -113.80718 301.58621 2.3509886e-38
85.900826 -113.01685 299.49185 2.3509886e-38
92.456635 -115.42146 305.86401 2.3509883e-38
95.160088 -113.01685 299.49185 2.3509527e-38
98.422729 -111.46867 295.38922 2.3416589e-38
101.5972 -109.96234 291.39749 2.2581028e-38
101.31001 -104.9963 278.23761 1.0039962e-38
104.26572 -103.65877 274.69318 7.4642461e-39
104.5177 -99.843109 264.58176 9.3974662e-39
105.37531 -96.87159 256.70731 1.0412711e-38
107.42525 -95.172089 252.20367 1.1425773e-38
112.64133 -96.298386 255.18832 1.1517606e-38
117.98235 -97.45166 258.24448 1.0872596e-38
117.74404 -94.071831 249.28802 1.013611e-38
122.30457 -94.618759 250.73737 9.2145211e-39
126.91843 -95.172089 252.20367 9.6762223e-39
128.5616 -93.531189 247.85533 8.1088966e-39
133.93248 -94.618759 250.73737 7.3738553e-39
136.22444 -93.531189 247.85533 9.5825848e-39
139.25554 -92.996727 246.43901 9.5840239e-39
139.86807 -90.918587 240.93201 1.0598542e-38
-229.45294 -95.169266 262.96848 2.1948625e-38
-214.90474 -90.74279 250.73737 2.3045654e-38
-72.052414 -32.789413 90.602577 1.8173245e-38
-69.627914 -32.314201 89.289497 1.9555053e-38
-66.4589 -31.467258 86.949249 7.651482e-39
-64.464966 -31.153214 86.08149 3.8722193e-39
-63.770729 -31.467258 86.949249 4.2399284e-39
-62.426643 -31.467258 86.949249 4.7923777e-39
-60.472954 -31.153214 86.08149 4.0558945e-39
-59.024467 -31.091156 85.910019 4.0566189e-39
-57.696445 -31.091156 85.910019 3.3201301e-39
-56.593899 -31.215519 86.253654 2.9499084e-39
-55.371307 -31.278076 86.426506 3.5038011e-39
-54.252747 -31.403944 86.7743 3.9640604e-39
-52.911366 -31.403944 86.7743 3.6874735e-39
-51.673958 -31.467258 86.949249 5.3462759e-39
-50.329868 -31.467258 86.949249 5.4377471e-39
-50.096802 -32.18095 88.921295 5.438103e-39
-48.722233 -32.18095 88.921295 1.236281e-38
-57.697525 -39.215477 108.35886 7.1908738e-39
-55.603363 -38.922096 107.5482 3.1339325e-39
-54.347443 -39.215477 108.35886 2.9495441e-39
-52.805077 -39.314259 108.63181 2.6729572e-39
-50.869545 -39.117191 108.08729 3.9636988e-39
-49.322315 -39.215477 108.35886 5.9909209e-39
-47.647274 -39.215477 108.35886 6.4500914e-39
-59.793949 -51.005753 140.93735 5.0693205e-39
-57.615299 -51.005753 140.93735 7.0079329e-39
-55.801365 -51.341316 141.86456 1.2175168e-38
-53.785309 -51.510757 142.33276 9.8738797e-39
-52.275192 -52.199867 144.23688 4.0544497e-39
-50.045536 -52.199867 144.23688 3.4097992e-39
-49.470409 -54.006088 149.22778 2.7658717e-39
-58.249069 -66.699829 184.30269 6.2657127e-39
-54.930573 -66.134575 182.7408 1.4754814e-38
-55.895222 -70.944366 196.03104 1.1808909e-38
-51.920902 -69.677498 192.53049 3.5027151e-39
-50.291813 -71.59523 197.82948 3.5019948e-39
-49.033089 -74.32267 205.36584 8.7585484e-39
-54.408371 -88.179436 243.65439 4.5118055e-39
-48.191479 -83.912689 231.86467 3.6863833e-39
-46.875416 -88.179436 243.65439 3.9622541e-39
-43.601608 -89.187202 246.43901 3.5016291e-39
-43.252266 -96.942612 267.8685 2.9491924e-39
-41.427292 -102.68263 283.72913 3.684591e-39
-38.563572 -106.90247 295.38922 1.3192599e-38
33.873787 -120.99039 334.3165 2.3509886e-38
35.219479 -109.14517 301.58621 2.3509886e-38
41.326462 -113.09971 312.51324 2.3509886e-38
45.49799 -111.484 308.04877 2.3509527e-38
54.126041 -120.05969 331.74484 2.3509883e-38
62.626438 -126.89236 350.6246 2.3417687e-38
67.497734 -125.86903 347.797 2.3418043e-38
67.942749 -117.35158 324.26187 2.3325492e-38
82.932068 -133.39966 368.60538 2.3509886e-38
77.385963 -116.47582 321.84201 2.3509886e-38
83.608978 -118.24061 326.71838 2.3509886e-38
81.271194 -108.38722 299.49185 2.3509886e-38
88.355133 -111.484 308.04877 2.3509886e-38
93.117035 -111.484 308.04877 2.3509886e-38
93.856522 -106.90247 295.38922 2.3509886e-38
98.422729 -106.90247 295.38922 2.3325835e-38
100.24257 -104.05173 287.51218 2.3325856e-38
100.01944 -99.412483 274.69318 1.5296938e-38
102.31075 -97.5485 269.54266 1.1432621e-38
103.8804 -95.169266 262.96848 7.0933028e-39
103.52662 -91.273453 252.20367 1.0690003e-38
109.99831 -93.459641 258.24448 1.078148e-38
114.67702 -94.022652 259.80017 1.1610161e-38
113.89047 -90.218269 249.28802 1.0227227e-38
116.39839 -89.187202 246.43901 1.0227953e-38
121.5976 -90.218269 249.28802 9.766976e-39
125.45117 -90.218269 249.28802 9.1219696e-39
128.5616 -89.699768 247.85533 8.5687958e-39
132.39302 -89.699768 247.85533 7.5568075e-39
134.67644 -88.680458 245.03879 9.491108e-39
137.68202 -88.179436 243.65439 9.5833022e-39
140.65385 -87.684044 242.28555 9.5829505e-39
142.00581 -86.230721 238.26976 1.3364402e-38
-202.62936 -79.053406 228.18428 1.863253e-38
-180.91483 -71.832176 207.34052 2.1389001e-38
-210.02054 -84.892578 245.03879 1.9366089e-38
-195.14488 -80.328461 231.86467 2.341804e-38
-68.106644 -30.870028 89.105019 1.0603512e-38
-64.723343 -29.94207 86.426506 3.6860301e-39
-63.642418 -30.062561 86.7743 3.4116012e-39
-62.051334 -29.94207 86.426506 4.8845733e-39
-60.715328 -29.94207 86.426506 4.1480901e-39
-58.907124 -29.703962 85.73922 3.780032e-39
-57.127445 -29.469612 85.062775 4.0566189e-39
-56.707314 -29.94207 86.426506 2.949907e-39
-55.594128 -30.062561 86.7743 3.7796691e-39
-54.471951 -30.184027 87.124908 3.8718647e-39
-53.018044 -30.123173 86.949249 3.6874735e-39
-51.673958 -30.123173 86.949249 5.0704079e-39
-50.636135 -30.306477 87.478355 5.5310217e-39
-49.891064 -30.679863 88.556114 5.1608001e-39
-48.722233 -30.806377 88.921295 7.0115216e-39
-58.283287 -37.921558 109.45895 1.0600306e-38
-56.59124 -37.921558 109.45895 3.0417369e-39
-54.075706 -37.352734 107.81707 2.8577114e-39
-52.672401 -37.540436 108.35886 2.6736733e-39
-50.99736 -37.540436 108.35886 3.1339382e-39
-49.446556 -37.634995 108.63181 5.6232174e-39
-48.500294 -38.212513 110.29879 6.8188739e-39
-59.793949 -48.827103 140.93735 5.1608001e-39
-57.804203 -48.98719 141.39943 9.1352609e-39
-55.801365 -49.148335 141.86456 7.8398431e-39
-54.142685 -49.638184 143.2785 9.226009e-39
-52.450611 -50.137897 144.7209 4.2388382e-39
-51.598675 -51.521011 148.7132 3.4097992e-39
-49.642181 -51.878796 149.74593 2.8573457e-39
-49.927773 -54.729279 157.97372 5.161163e-39
-55.637833 -64.124863 185.09369 1.7145415e-38
-54.653103 -66.404861 191.67479 1.218163e-38
-51.920902 -66.701309 192.53049 3.5027179e-39
-49.385654 -67.302223 194.26498 3.501992e-39
-48.34248 -70.145981 202.47337 6.9110723e-39
-54.71751 -84.892578 245.03879 4.1459181e-39
-48.191479 -80.328461 231.86467 3.501992e-39
-46.351665 -83.469795 240.93201 4.6998191e-39
-43.353874 -84.892578 245.03879 4.1455663e-39
-43.252266 -92.801819 267.8685 3.0413908e-39
-40.889275 -97.020088 280.04434 3.7771356e-39
-38.563572 -102.33626 295.38922 7.5668786e-39
16.571459 -104.48317 301.58621 2.3509886e-38
23.72176 -116.72729 336.92834 2.341805e-38
39.366833 -134.60445 388.52997 2.3509886e-38
37.584965 -111.50069 321.84201 2.3509886e-38
41.029152 -107.48988 310.26495 2.3509886e-38
51.368698 -120.49269 347.797 2.3509883e-38
53.712864 -114.05415 329.21243 2.3509886e-38
59.713581 -115.82243 334.3165 2.3509886e-38
67.497734 -120.49269 347.797 2.3509886e-38
64.087837 -105.9652 305.86401 2.3509883e-38
70.311974 -108.26879 312.51324 2.3418042e-38
75.142891 -108.26879 312.51324 2.3509886e-38
79.398453 -107.48988 310.26495 2.3509886e-38
81.271194 -103.75759 299.49185 2.3509886e-38
88.990784 -107.48988 310.26495 2.3509886e-38
93.786942 -107.48988 310.26495 2.3509886e-38
94.503807 -103.04202 297.42639 2.3509886e-38
93.30986 -97.020088 280.04434 2.350988e-38
97.008942 -96.39415 278.23761 2.3508779e-38
101.31001 -96.39415 278.23761 2.350803e-38
101.67527 -92.801819 267.8685 1.0960113e-38
102.01428 -89.467621 258.24448 7.09293e-39
103.52662 -87.374817 252.20367 9.3963872e-39
109.99831 -89.467621 258.24448 1.1609085e-38
111.97874 -87.888786 253.68723 1.1241382e-38
111.94916 -84.892578 245.03879 1.0780403e-38
115.73704 -84.892578 245.03879 9.3067153e-39
120.20792 -85.377678 246.43901 9.8595262e-39
124.01744 -85.377678 246.43901 8.753187e-39
127.82697 -85.377678 246.43901 9.5833036e-39
130.88855 -84.892578 245.03879 7.739761e-39
133.91554 -84.412956 243.65439 9.2152414e-39
138.46431 -84.892578 245.03879 9.9506428e-39
139.86807 -83.469795 240.93201 9.7687725e-39
142.79474 -83.006073 239.59349 1.0230125e-38
-227.76024 -82.036934 247.85533 1.7163797e-38
-210.61414 -77.159065 233.118 1.475202e-38
-210.42279 -78.430916 236.96059 1.6326918e-38
-211.40608 -80.193405 242.28555 1.9911039e-38
-205.35342 -79.302368 239.59349 2.0290192e-38
-203.91545 -80.193405 242.28555 2.2682937e-38
-68.817566 -29.800472 90.035133 1.0515644e-38
-65.644203 -29.013062 87.656151 3.5963484e-39
-63.899559 -28.837225 87.124908 3.5016417e-39
-62.426643 -28.779085 86.949249 4.4250385e-39
-60.837246 -28.663507 86.60006 3.8725836e-39
-59.379322 -28.606066 86.426506 3.5045241e-39
-57.696445 -28.435112 85.910019 4.1491705e-39
-56.821182 -28.663507 86.60006 3.2257765e-39
-56.045197 -28.954212 87.478355 3.3194098e-39
-54.692932 -28.954212 87.478355 3.9633415e-39
-53.018044 -28.779085 86.949249 3.6874721e-39
-52.09407 -29.013062 87.656151 3.9644233e-39
-50.739056 -29.013062 87.656151 5.4391904e-39
-49.993721 -29.371248 88.738327 5.3459074e-39
-48.42271 -29.250874 88.374649 5.9934348e-39
-59.645756 -37.076431 112.01774 6.2700049e-39
-57.466362 -36.789761 111.15162 3.1346486e-39
-55.179291 -36.414352 110.01742 2.7655158e-39
-52.672401 -35.865395 108.35886 2.8573485e-39
-50.869545 -35.775505 108.08729 2.6733201e-39
-49.571419 -36.046532 108.90613 5.8987281e-39
-49.001591 -36.884823 111.43884 6.6352015e-39
-46.088032 -35.955734 108.63181 5.2519139e-39
-57.99435 -46.955349 141.86456 7.010458e-39
-55.801365 -46.955349 141.86456 7.4721368e-39
-54.142685 -47.423344 143.2785 8.0227924e-39
-54.271812 -49.56398 149.74593 4.2377592e-39
-51.245258 -48.885021 147.69461 3.3186797e-39
-50.34137 -50.262066 151.85503 3.0406635e-39
-48.334332 -50.618534 152.93201 5.5295798e-39
-51.442917 -56.64455 171.1382 1.0883378e-38
-54.171581 -62.882938 189.98602 1.1995106e-38
-51.69014 -63.441895 191.67479 3.5034339e-39
-48.94471 -63.725121 192.53049 3.5019948e-39
-47.671059 -66.085312 199.66124 7.3724106e-39
-54.71751 -81.104698 245.03879 4.7919923e-39
-48.981503 -78.002335 235.66573 3.6856672e-39
-46.875416 -80.646477 243.65439 4.2388438e-39
-43.601608 -81.568153 246.43901 4.4217903e-39
-42.985279 -88.113747 266.215 3.3176007e-39
-40.889275 -92.691078 280.04434 3.6860189e-39
-38.829529 -98.444321 297.42639 6.5523777e-39
-33.997364 -97.770042 295.38922 1.9831005e-38
11.826749 -99.12796 299.49185 2.3509886e-38
16.456379 -99.12796 299.49185 2.3509886e-38
22.00279 -103.43787 312.51324 2.3509883e-38
37.348022 -122.00365 368.60538 2.3418047e-38
34.495789 -97.770042 295.38922 2.3509886e-38
51.368698 -115.11634 347.797 2.3509886e-38
55.40461 -112.39706 339.58133 2.3509886e-38
57.917683 -107.32652 324.26187 2.3509886e-38
58.123047 -99.12796 299.49185 2.3509883e-38
60.242569 -95.162842 287.51218 2.3509886e-38
75.217461 -110.65447 334.3165 2.3509886e-38
71.025467 -97.770042 295.38922 2.3509886e-38
78.831322 -101.96019 308.04877 2.3509886e-38
81.839523 -99.821167 301.58621 2.3509886e-38
86.501526 -99.821167 301.58621 2.3509886e-38
94.46656 -103.43787 312.51324 2.3509886e-38
92.588188 -96.44883 291.39749 2.3509886e-38
91.526871 -90.919914 274.69318 2.3509883e-38
93.977409 -89.215164 269.54266 2.3508805e-38
98.761337 -89.776268 271.23792 2.3508783e-38
101.04765 -88.113747 266.215 2.3505902e-38
102.01428 -85.475609 258.24448 8.6591851e-39
103.52662 -83.476181 252.20367 8.4773078e-39
105.5731 -82.036934 247.85533 1.1425773e-38
109.40452 -82.036934 247.85533 1.1056627e-38
111.94916 -81.104698 245.03879 1.0228309e-38
115.73704 -81.104698 245.03879 8.2018083e-39
118.84963 -80.646477 243.65439 1.0321946e-38
121.92726 -80.193405 242.28555 9.5815058e-39
125.67258 -80.193405 242.28555 9.5847428e-39
130.14908 -80.646477 243.65439 9.3985564e-39
134.67644 -81.104698 245.03879 9.3996354e-39
136.90854 -80.193405 242.28555 9.951719e-39
139.09103 -79.302368 239.59349 9.769134e-39
140.45384 -78.002335 235.66573 9.6773041e-39
148.98146 -80.646477 243.65439 2.1205736e-38
-223.8999 -76.879997 243.65439 1.0612528e-38
-218.89671 -76.44809 242.28555 2.2591515e-38
-212.76083 -75.598663 239.59349 2.2958856e-38
-212.60046 -76.879997 243.65439 2.3141456e-38
-208.83398 -76.879997 243.65439 2.323434e-38
-201.64972 -75.598663 239.59349 2.0196553e-38
-199.05185 -76.021004 240.93201 2.3509846e-38
-68.674202 -28.349501 89.847557 1.9085817e-38
-66.454628 -27.999506 88.738327 4.7930797e-39
-64.289192 -27.658049 87.656151 2.9517049e-39
-62.934177 -27.658049 87.656151 4.056256e-39
-61.454258 -27.601948 87.478355 3.8718633e-39
-59.859158 -27.490423 87.124908 3.8718647e-39
-58.512356 -27.490423 87.124908 3.8725836e-39
-57.63126 -27.714378 87.834679 3.2264939e-39
-56.735691 -27.942013 88.556114 3.0428215e-39
-55.709949 -28.115206 89.105019 4.423598e-39
-54.220512 -28.057238 88.921295 4.8842132e-39
-52.306698 -27.770939 88.013931 3.7796691e-39
-50.946156 -27.770939 88.013931 5.3469934e-39
-50.304241 -28.173416 89.289497 5.3459074e-39
-49.025482 -28.231867 89.474747 5.439175e-39
-59.957222 -35.5294 112.60268 5.7193464e-39
-57.466362 -35.071545 111.15162 3.1342997e-39
-55.8922 -35.16217 111.43884 2.7658689e-39
-53.207146 -34.53746 109.45895 2.7658717e-39
-50.869545 -34.10466 108.08729 2.5811245e-39
-49.696915 -34.450024 109.18185 5.5313861e-39
-48.875298 -35.071545 111.15162 6.3593405e-39
-46.321388 -34.450024 109.18185 4.8842132e-39
-58.185749 -44.910099 142.33276 6.5487414e-39
-58.495224 -46.923309 148.7132 7.0997656e-39
-56.390827 -47.085674 149.22778 9.8685001e-39
-54.651337 -47.579578 150.79311 4.3328275e-39
-53.63303 -48.773335 154.57645 3.3183238e-39
-51.060532 -48.599144 154.02438 3.3168875e-39
-49.206795 -49.125488 155.69252 6.0827536e-39
-51.854462 -54.431038 172.50731 8.119667e-39
-53.933983 -59.683159 189.15276 1.4854955e-38
-51.461426 -60.211327 190.82668 3.9633247e-39
-48.94471 -60.748928 192.53049 3.5016389e-39
-46.80431 -61.853455 196.03104 6.5437289e-39
-54.71751 -77.316818 245.03879 6.0838073e-39
-49.250633 -74.767914 236.96059 3.5934688e-39
-46.612068 -76.44809 242.28555 3.8700613e-39
-43.353874 -77.316818 245.03879 4.6061816e-39
-43.522594 -85.0485 269.54266 3.1350045e-39
-41.427292 -89.524734 283.72913 4.0526575e-39
-39.099178 -94.498329 299.49185 7.5676339e-39
-34.710594 -95.159157 301.58621 2.3509873e-38
-29.230942 -92.569794 293.37979 2.3417324e-38
-25.210289 -94.498329 299.49185 2.3509883e-38
-20.58066 -94.498329 299.49185 2.3325127e-38
-12.540627 -104.67508 331.74484 2.3509883e-38
-7.0336857 -99.326714 314.79437 2.3509886e-38
-2.4745688 -113.398 359.39023 2.3509886e-38
2.5854435 -95.159157 301.58621 2.3509886e-38
7.2984867 -95.829292 303.71005 2.3509886e-38
11.745185 -93.846619 297.42639 2.3509886e-38
16.011612 -91.944321 291.39749 2.3509886e-38
26.175734 -117.30827 371.78299 2.3509883e-38
35.219479 -95.159157 301.58621 2.3509883e-38
48.330948 -115.32 365.4816 2.3509886e-38
55.874725 -119.36632 378.30551 2.3509886e-38
54.97176 -106.31062 336.92834 2.3509886e-38
54.246845 -95.829292 303.71005 2.3509886e-38
58.123047 -94.498329 299.49185 2.3509886e-38
61.893051 -93.203835 295.38922 2.3509527e-38
66.459259 -93.203835 295.38922 2.3509886e-38
73.026184 -95.829292 303.71005 2.3509886e-38
77.177521 -95.159157 301.58621 2.3509886e-38
80.710701 -93.846619 297.42639 2.3509886e-38
87.110695 -95.829292 303.71005 2.3509886e-38
90.530457 -94.498329 299.49185 2.3509886e-38
94.503807 -93.846619 297.42639 2.3509883e-38
93.30986 -88.362076 280.04434 2.3509886e-38
94.568459 -85.583397 271.23792 2.3509879e-38
98.144073 -85.0485 269.54266 2.3509153e-38
101.67527 -84.520248 267.8685 2.3418042e-38
102.62883 -81.974457 259.80017 1.2063575e-38
102.92472 -79.114883 250.73737 8.2007167e-39
104.96982 -77.758629 246.43901 1.0597091e-38
108.77934 -77.758629 246.43901 1.0872599e-38
111.94916 -77.316818 245.03879 1.0320148e-38
115.73704 -77.316818 245.03879 1.0689651e-38
118.84963 -76.879997 243.65439 1.0227953e-38
121.2461 -76.021004 240.93201 1.0596735e-38
124.27621 -75.598663 239.59349 1.0135757e-38
128.69489 -76.021004 240.93201 1.0227953e-38
133.16321 -76.44809 242.28555 8.2010923e-39
134.63933 -75.180992 238.26976 1.0045359e-38
134.60422 -73.159996 231.86467 9.8598891e-39
141.22556 -74.767914 236.96059 9.6773069e-39
148.14449 -76.44809 242.28555 1.0327742e-38
151.8898 -76.44809 242.28555 2.3142534e-38
-223.92883 -74.3741 247.85533 1.6056743e-38
-209.27295 -70.716354 235.66573 2.0746428e-38
-213.80843 -73.528938 245.03879 1.8632494e-38
-210.02054 -73.528938 245.03879 2.3326117e-38
-203.91545 -72.702774 242.28555 2.323434e-38
-196.85239 -71.497749 238.26976 2.3050666e-38
-68.817566 -27.016895 90.035133 1.7801214e-38
-67.566841 -27.073418 90.223488 6.1785239e-39
-64.949242 -26.573086 88.556114 3.1339325e-39
-64.239868 -26.848742 89.474747 3.3186909e-39
-62.597 -26.737797 89.105019 3.964059e-39
-60.224152 -26.303036 87.656151 3.7796691e-39
-59.230297 -26.464403 88.193924 3.5956408e-39
-57.748875 -26.410395 88.013931 3.4108852e-39
-56.969654 -26.682667 88.921295 2.8584303e-39
-55.825291 -26.793154 89.289497 4.6079906e-39
-54.220512 -26.682667 88.921295 4.8842132e-39
-52.737206 -26.627764 88.738327 3.7796691e-39
-51.050339 -26.464403 88.193924 5.6235817e-39
-50.513409 -26.90456 89.660767 5.4377471e-39
-49.229755 -26.960611 89.847557 5.1615133e-39
-58.064972 -33.700764 112.30945 3.5027151e-39
-55.8922 -33.439518 111.43884 2.8580673e-39
-54.169548 -33.439518 111.43884 2.6736761e-39
-52.043457 -33.182289 110.58161 2.5811245e-39
-49.696915 -32.76226 109.18185 5.4391904e-39
-48.875298 -33.353333 111.15162 6.1749464e-39
-46.675888 -33.012993 110.01742 5.3433907e-39
-58.767605 -43.136978 143.75609 5.9001546e-39
-59.313339 -45.248577 150.79311 8.1175062e-39
-55.811466 -44.318813 147.69461 9.776638e-39
-54.271812 -44.934353 149.74593 8.0188394e-39
-51.598675 -44.624458 148.7132 3.501992e-39
-50.698399 -45.8904 152.93201 3.2254079e-39
-49.029793 -46.550694 155.13248 5.4377471e-39
-53.12957 -53.037266 176.7493 7.5621968e-39
-53.464993 -56.265621 187.50795 1.3374441e-38
-52.62571 -58.556984 195.14401 4.3296045e-39
-48.94471 -57.772739 192.53049 3.3190315e-39
-47.018028 -59.091751 196.92615 6.2649952e-39
-54.71751 -73.528938 245.03879 7.1905206e-39
-49.250633 -71.104904 236.96059 3.9626072e-39
-46.612068 -72.702774 242.28555 3.7767866e-39
-43.601608 -73.949104 246.43901 5.066438e-39
-43.522594 -80.881836 269.54266 3.5938345e-39
-40.625473 -83.490921 278.23761 4.0551658e-39
-39.372601 -90.497154 301.58621 3.787962e-39
-35.709461 -93.101387 310.26495 2.3509883e-38
-30.260201 -91.13446 303.71005 2.3509883e-38
-25.036425 -89.248917 297.42639 2.3509527e-38
-20.58066 -89.868706 299.49185 2.3509527e-38
-16.406773 -92.436378 308.04877 2.3509168e-38
-12.736575 -101.10229 336.92834 2.3509527e-38
-7.245225 -97.301453 324.26187 2.3509886e-38
-2.2326937 -97.301453 324.26187 2.3509886e-38
2.6986747 -94.460533 314.79437 2.3509886e-38
7.2984867 -91.13446 303.71005 2.3509886e-38
11.826749 -89.868706 299.49185 2.3509886e-38
17.048334 -93.101387 310.26495 2.3509886e-38
24.098295 -102.70709 342.2764 2.3509521e-38
36.232986 -93.101387 310.26495 2.3418047e-38
51.845924 -117.6463 392.06207 2.3509886e-38
55.874725 -113.51836 378.30551 2.3509886e-38
55.40461 -101.89837 339.58133 2.3509886e-38
58.356453 -98.038582 326.71838 2.3509886e-38
59.783703 -92.436378 308.04877 2.3509886e-38
61.893051 -88.637627 295.38922 2.3509876e-38
72.011932 -89.868706 299.49185 2.3509886e-38
77.721024 -91.13446 303.71005 2.3509886e-38
80.710701 -89.248917 297.42639 2.3509886e-38
87.110695 -91.13446 303.71005 2.3509886e-38
91.163536 -90.497154 301.58621 2.3509886e-38
90.748688 -85.702606 285.60812 2.3509886e-38
95.163704 -85.702606 285.60812 2.3326185e-38
95.773155 -82.427345 274.69318 2.3509879e-38
98.144073 -80.881836 269.54266 2.3509513e-38
100.42772 -79.393211 264.58176 2.3509168e-38
100.21404 -76.124077 253.68723 2.3500829e-38
101.74168 -74.3741 247.85533 1.1883136e-38
104.37341 -73.528938 245.03879 1.0596009e-38
108.16128 -73.528938 245.03879 9.7669746e-39
110.07291 -72.296608 240.93201 9.9520848e-39
115.08316 -73.113518 243.65439 1.0228672e-38
117.52171 -72.296608 240.93201 9.6751349e-39
120.57251 -71.894966 239.59349 1.0597454e-38
123.58961 -71.497749 238.26976 1.0227953e-38
125.88189 -70.716354 235.66573 1.0595649e-38
128.82094 -70.332031 234.38493 1.0964798e-38
130.31935 -69.203705 230.62476 1.1149186e-38
133.88441 -69.203705 230.62476 9.6765741e-39
