# .PCD v0.7 - Point Cloud Data file format
VERSION 0.7
FIELDS x y z rgb
SIZE 4 4 4 4
TYPE F F F F
COUNT 1 1 1 1
WIDTH 1084
HEIGHT 1
VIEWPOINT 0 0 0 1 0 0 0
POINTS 1084
DATA ascii
-115.34624 8.5437155 154.02438 5.8998042e-39
-113.37019 8.5743389 154.57645 6.6362945e-39
-111.78201 8.6362467 155.69252 7.0058029e-39
-108.98183 8.6051817 155.13248 7.0976244e-39
-104.70065 8.4531469 152.39162 6.9139702e-39
-101.98456 8.4233818 151.85503 7.1901885e-39
-101.06053 8.5437155 154.02438 6.1760394e-39
-96.272758 8.3353329 150.2677 5.991651e-39
-94.942307 8.4233818 151.85503 6.6370148e-39
-92.594887 8.4233818 151.85503 6.9136073e-39
-90.566368 8.4531469 152.39162 6.8206843e-39
-86.981239 8.3353329 150.2677 6.9143205e-39
-85.552635 8.4233818 151.85503 6.8206843e-39
-85.616966 8.6675377 156.25662 6.0841983e-39
-82.306862 8.5743389 154.57645 6.3593517e-39
-79.631958 8.5437155 154.02438 6.3604279e-39
-77.527893 8.5743389 154.57645 6.2682322e-39
-75.408691 8.6051817 155.13248 6.6377364e-39
-74.621132 8.795002 158.55452 6.7277713e-39
-72.975029 8.8930874 160.32278 7.0965524e-39
-70.496712 8.8930874 160.32278 6.6373665e-39
-66.777184 8.7308044 157.39719 6.5462569e-39
-64.344093 8.7308044 157.39719 8.1125022e-39
-61.020199 8.6051817 155.13248 7.927385e-39
-59.261631 8.6990566 156.82483 6.8228438e-39
-57.676315 8.8274555 159.13959 7.6518884e-39
-55.01329 8.795002 158.55452 7.0057973e-39
-52.562309 8.795002 158.55452 9.6783859e-39
-50.111332 8.795002 158.55452 9.1266625e-39
-48.01339 8.8601494 159.72899 1.3368383e-38
-44.879375 8.7308044 157.39719 1.7332076e-38
-41.242134 8.4831219 152.93201 1.5120822e-38
-39.579838 8.6362467 155.69252 1.0693988e-38
-37.039383 8.6051817 155.13248 1.7148052e-38
-33.909443 8.4233818 151.85503 1.7333168e-38
-31.898987 8.5133114 153.47626 1.7883845e-38
-29.526506 8.5133114 153.47626 1.8621404e-38
-26.586348 8.3353329 150.2677 1.6689592e-38
-24.433737 8.3938265 151.3222 1.0506352e-38
-22.732666 8.6362467 155.69252 1.0415959e-38
-19.965538 8.4831219 152.93201 8.8497267e-39
-17.234774 8.3063908 149.74593 8.1110602e-39
-14.919959 8.3063908 149.74593 8.1081736e-39
-13.10571 8.6362467 155.69252 8.8486365e-39
-10.816113 8.7308044 157.39719 1.2259153e-38
-8.23279 8.5743389 154.57645 1.2626859e-38
-5.8854933 8.6362467 155.69252 1.3551338e-38
-3.4538169 8.5743389 154.57645 1.1889283e-38
-1.0917215 8.795002 158.55452 1.1150999e-38
1.3693275 8.8601494 159.72899 1.1521591e-38
3.8102393 8.795002 158.55452 1.3735376e-38
6.2382851 8.7627859 157.97372 1.1800336e-38
8.5859365 8.6675377 156.25662 1.1154252e-38
10.961679 8.6362467 155.69252 8.7546318e-39
13.13139 8.4831219 152.93201 1.0598912e-38
15.662073 8.5743389 154.57645 6.8203186e-39
18.933779 8.9933853 162.13094 7.8348363e-39
21.440044 8.9933853 162.13094 8.4809302e-39
23.94631 8.9933853 162.13094 1.7238087e-38
26.353502 8.9597025 161.5237 1.6871098e-38
28.529821 8.8601494 159.72899 1.4843147e-38
31.114195 8.8930874 160.32278 1.6684211e-38
33.844139 8.9597025 161.5237 1.5119779e-38
37.03455 9.1306887 164.60622 1.484244e-38
40.037525 9.2364492 166.51285 1.9357515e-38
42.447636 9.2009249 165.87242 1.3364062e-38
44.498295 9.0959711 163.98033 7.5607829e-39
47.393559 9.1656723 165.23689 9.5880106e-39
49.757195 9.1306887 164.60622 1.0416687e-38
52.907536 9.2364492 166.51285 9.5869246e-39
54.846256 9.1306887 164.60622 1.2165521e-38
56.316051 8.9597025 161.5237 1.2721224e-38
58.812931 8.9597025 161.5237 1.3921574e-38
60.62859 8.8601494 159.72899 1.945403e-38
62.17659 8.7308044 157.39719 1.659525e-38
64.141495 8.6675377 156.25662 1.3920788e-38
65.841286 8.5743389 154.57645 1.4109135e-38
68.723412 8.6362467 155.69252 1.3553471e-38
74.071625 8.9933853 162.13094 1.5857662e-38
76.006416 8.9262705 160.92101 1.2994915e-38
77.339653 8.795002 158.55452 1.373857e-38
80.680489 8.8930874 160.32278 1.4293562e-38
82.241615 8.795002 158.55452 2.1301529e-38
85.956665 8.9262705 160.92101 2.0470329e-38
86.824364 8.7627859 157.97372 1.6867128e-38
89.594559 8.795002 158.55452 1.641121e-38
91.373672 8.7308044 157.39719 1.6410524e-38
94.150375 8.7627859 157.97372 1.217379e-38
96.947495 8.795002 158.55452 1.4198161e-38
99.398476 8.795002 158.55452 1.4198879e-38
101.47638 8.7627859 157.97372 1.0416687e-38
103.91839 8.7627859 157.97372 1.0787979e-38
105.58686 8.6990566 156.82483 7.927385e-39
108.0111 8.6990566 156.82483 8.0228149e-39
109.24359 8.6051817 155.13248 9.221358e-39
109.28305 8.4233818 151.85503 9.3138998e-39
112.02492 8.4531469 152.39162 9.408259e-39
112.78648 8.3353329 150.2677 8.5824514e-39
115.91714 8.3938265 151.3222 8.5784956e-39
120.36804 8.5437155 154.02438 7.4728697e-39
123.18896 8.5743389 154.57645 1.0328776e-38
123.36755 8.4233818 151.85503 1.3738955e-38
-120.81056 9.6495495 136.04678 5.8998014e-39
-123.21205 10.196357 143.75609 5.0700408e-39
-120.58787 10.162482 143.2785 4.8856523e-39
-115.68273 9.9315166 140.02217 4.6998163e-39
-116.15819 10.162482 143.2785 4.9760529e-39
-113.94335 10.162482 143.2785 5.8072569e-39
-111.35855 10.128832 142.80406 7.9284752e-39
-110.9886 10.299351 145.20818 7.7444497e-39
-107.65649 10.196357 143.75609 8.2043405e-39
-105.08399 10.162482 143.2785 7.0987118e-39
-103.55724 10.230458 144.23688 6.545538e-39
-101.66761 10.264789 144.7209 7.0061546e-39
-98.439476 10.162482 143.2785 8.3890975e-39
-95.589493 10.095403 142.33276 7.4667754e-39
-94.638626 10.230458 144.23688 7.0979929e-39
-92.71907 10.264789 144.7209 7.8355579e-39
-90.481934 10.264789 144.7209 6.267512e-39
-88.244797 10.264789 144.7209 6.1760394e-39
-86.00766 10.264789 144.7209 6.9128772e-39
-84.33654 10.334146 145.69875 6.6370176e-39
-80.720757 10.162482 143.2785 6.3611495e-39
-80.649429 10.439956 147.19054 6.4519032e-39
-77.318573 10.299351 145.20818 6.8206858e-39
-74.821976 10.264789 144.7209 6.8214116e-39
-72.584839 10.264789 144.7209 6.8217718e-39
-70.347702 10.264789 144.7209 5.8994497e-39
-68.803215 10.369177 146.19264 6.6370148e-39
-67.92485 10.584454 149.22778 6.4519018e-39
-67.486176 10.885791 153.47626 7.0969223e-39
-64.882797 10.847188 152.93201 7.4667754e-39
-62.078457 10.7708 151.85503 6.4526235e-39
-60.368736 10.885791 153.47626 7.7419218e-39
-57.790596 10.847188 152.93201 5.8998042e-39
-56.022514 10.963825 154.57645 9.1288233e-39
-52.503914 10.733007 151.3222 8.7578716e-39
-51.427872 11.003263 155.13248 1.0323045e-38
-48.679577 10.924668 154.02438 1.4473294e-38
-45.970268 10.847188 152.93201 1.5762238e-38
-43.452114 10.808859 152.39162 1.7329927e-38
-40.951698 10.7708 151.85503 1.6318275e-38
-38.33432 10.695479 150.79311 1.7239917e-38
-36.256863 10.7708 151.85503 2.0649344e-38
-32.645023 10.369177 146.19264 1.9083093e-38
-30.802801 10.511708 148.20216 1.8622831e-38
-28.709164 10.584454 149.22778 1.7792337e-38
-25.865362 10.369177 146.19264 1.5947683e-38
-23.605474 10.369177 146.19264 1.558041e-38
-21.638998 10.511708 148.20216 1.6134252e-38
-19.348047 10.511708 148.20216 1.38272e-38
-16.825813 10.369177 146.19264 1.0045734e-38
-14.615471 10.404446 146.6899 8.0177856e-39
-12.475195 10.511708 148.20216 1.0324118e-38
-10.29033 10.621205 149.74593 1.3088562e-38
-7.9479179 10.584454 149.22778 1.4105591e-38
-5.6606998 10.621205 149.74593 1.6501961e-38
-3.3458853 10.621205 149.74593 1.6133535e-38
-1.0382806 10.695479 150.79311 1.6409052e-38
1.2927217 10.695479 150.79311 1.1890376e-38
3.6237242 10.695479 150.79311 1.1892534e-38
5.9547267 10.695479 150.79311 1.1615947e-38
8.2857294 10.695479 150.79311 1.1613784e-38
10.543004 10.621205 149.74593 8.8468274e-39
12.725264 10.511708 148.20216 9.6773041e-39
15.172634 10.621205 149.74593 8.1092624e-39
17.859522 10.847188 152.93201 1.078439e-38
20.368042 10.924668 154.02438 1.2535016e-38
22.668037 10.885791 153.47626 1.1153161e-38
25.220018 10.963825 154.57645 1.5488869e-38
28.113329 11.163895 157.39719 1.5857313e-38
30.325068 11.082997 156.25662 1.5860158e-38
32.62233 11.042986 155.69252 1.5394878e-38
35.804619 11.28748 159.13959 1.3919772e-38
38.123966 11.245982 158.55452 1.5765838e-38
40.426319 11.204788 157.97372 1.3642443e-38
41.796616 10.924668 154.02438 8.3894618e-39
44.980797 11.123299 156.82483 1.3090723e-38
47.23328 11.082997 156.25662 1.262866e-38
48.939472 10.924668 154.02438 1.1245001e-38
50.956448 10.847188 152.93201 9.4950821e-39
53.510269 10.885791 153.47626 8.942274e-39
57.102009 11.123299 156.82483 1.2814503e-38
58.048649 10.847188 152.93201 1.4198526e-38
59.987274 10.7708 151.85503 1.7053331e-38
61.898785 10.695479 150.79311 1.0048605e-38
63.783745 10.621205 149.74593 9.8631275e-39
66.794334 10.733007 151.3222 1.0600693e-38
69.133514 10.733007 151.3222 1.1248957e-38
71.222794 10.695479 150.79311 1.5764385e-38
74.862579 10.885791 153.47626 1.1151364e-38
76.419197 10.7708 151.85503 8.7549961e-39
78.766617 10.7708 151.85503 1.3832581e-38
80.546806 10.695479 150.79311 1.7703739e-38
84.053375 10.847188 152.93201 1.6040637e-38
85.808868 10.7708 151.85503 1.8717205e-38
87.234795 10.658213 150.2677 1.8165438e-38
90.18615 10.733007 151.3222 1.4569457e-38
93.509644 10.847188 152.93201 1.7980709e-38
95.873711 10.847188 152.93201 1.4936128e-38
96.191154 10.621205 149.74593 1.3832995e-38
98.505966 10.621205 149.74593 1.4388655e-38
100.82079 10.621205 149.74593 1.3552769e-38
104.22124 10.733007 151.3222 1.3925507e-38
104.72317 10.547956 148.7132 9.2191972e-39
106.28899 10.475709 147.69461 8.0249729e-39
109.32087 10.547956 148.7132 6.6413195e-39
110.8552 10.475709 147.69461 8.3037178e-39
110.48959 10.230458 144.23688 9.2245866e-39
112.34351 10.196357 143.75609 9.5894105e-39
113.05829 10.062195 141.86456 1.0330929e-38
119.17138 10.404446 146.6899 1.0328773e-38
-120.05313 11.678915 135.19382 4.7934595e-39
-123.88037 12.715269 147.19054 5.8065296e-39
-117.98106 12.336337 142.80406 5.8065296e-39
-113.51823 12.096019 140.02217 5.1618847e-39
-110.27958 11.979337 138.67148 5.8065296e-39
-113.23328 12.54402 145.20818 5.8987252e-39
-109.51367 12.377321 143.2785 5.9005315e-39
-106.59059 12.295623 142.33276 7.9284612e-39
-105.7869 12.460114 144.23688 8.9419223e-39
-102.86916 12.377321 143.2785 7.3752973e-39
-99.661018 12.255177 141.86456 6.4526235e-39
-95.890884 12.056873 139.56902 5.7157801e-39
-94.652336 12.175077 140.93735 6.3597062e-39
-90.117668 11.864884 137.34659 6.4526235e-39
-91.189049 12.295623 142.33276 5.5306672e-39
-88.696106 12.255177 141.86456 5.9909237e-39
-85.657814 12.13542 140.47827 5.6221412e-39
-81.625099 11.864884 137.34659 6.2703958e-39
-79.755959 11.902792 137.7854 6.6377364e-39
-78.377251 12.01798 139.1188 6.7284901e-39
-78.245964 12.336337 142.80406 6.9136045e-39
-76.291084 12.377321 143.2785 6.7295761e-39
-74.076241 12.377321 143.2785 6.3607824e-39
-72.584839 12.501925 144.7209 6.2682322e-39
-69.878716 12.418579 143.75609 6.5440975e-39
-67.882774 12.460114 144.23688 6.3607824e-39
-67.22699 12.758815 147.69461 6.8210375e-39
-65.391777 12.846807 148.7132 7.0972726e-39
-62.23452 12.67202 146.6899 8.5734803e-39
-61.004436 12.891259 149.22778 8.8500672e-39
-59.731041 13.118217 151.85503 6.6366434e-39
-57.383621 13.118217 151.85503 6.8214088e-39
-54.271812 12.93602 149.74593 6.730295e-39
-52.138031 12.981093 150.2677 1.0509245e-38
-49.642181 12.93602 149.74593 1.2443912e-38
-47.658329 13.026482 150.79311 1.2725544e-38
-45.012554 12.93602 149.74593 1.6963291e-38
-42.697739 12.93602 149.74593 1.6225765e-38
-39.829731 12.758815 147.69461 1.7423204e-38
-37.41848 12.715269 147.19054 1.8256563e-38
-35.143169 12.715269 147.19054 1.7242788e-38
-31.994291 12.377321 143.2785 1.7242077e-38
-29.878717 12.418579 143.75609 1.6501629e-38
-27.84211 12.501925 144.7209 1.6688865e-38
-25.349773 12.377321 143.2785 2.1024229e-38
-22.982227 12.295623 142.33276 1.7697993e-38
-20.920094 12.377321 143.2785 1.5208341e-38
-18.220976 12.056873 139.56902 1.0412708e-38
-15.858195 11.902792 137.7854 8.6620704e-39
-14.042315 12.175077 140.93735 7.6479157e-39
-12.264465 12.586398 145.69875 1.5946629e-38
-9.9117556 12.460114 144.23688 1.9820652e-38
-7.6821012 12.460114 144.23688 1.7605449e-38
-5.4707437 12.501925 144.7209 1.8805046e-38
-3.2444947 12.54402 145.20818 1.3823935e-38
-1.0204407 12.802659 148.20216 1.3361884e-38
1.2661591 12.758815 147.69461 1.2531406e-38
3.5492642 12.758815 147.69461 1.1796369e-38
5.8124633 12.715269 147.19054 1.0505281e-38
8.1154747 12.758815 147.69461 1.3458052e-38
10.292831 12.629064 146.19264 1.1336109e-38
12.221293 12.295623 142.33276 8.6638795e-39
14.469267 12.336337 142.80406 9.9531778e-39
17.366846 12.846807 148.7132 9.8645975e-39
19.598116 12.802659 148.20216 1.345912e-38
22.040548 12.891259 149.22778 1.4750233e-38
24.517021 12.981093 150.2677 1.4289982e-38
26.839903 12.981093 150.2677 1.7607607e-38
28.861099 12.846807 148.7132 9.769148e-39
30.840906 12.715269 147.19054 1.1522685e-38
34.045795 13.072188 151.3222 1.2262002e-38
36.642117 13.164572 152.39162 1.5395253e-38
38.860512 13.118217 151.85503 1.3924788e-38
40.635597 12.93602 149.74593 9.4025375e-39
42.950413 12.93602 149.74593 1.3550259e-38
45.741703 13.072188 151.3222 1.3549895e-38
47.745827 12.981093 150.2677 1.4471851e-38
49.894855 12.93602 149.74593 1.0968414e-38
53.132103 13.164572 152.39162 9.7713173e-39
55.487816 13.164572 152.39162 9.1263136e-39
57.639854 13.118217 151.85503 1.0509964e-38
59.776791 13.072188 151.3222 1.3922644e-38
61.468929 12.93602 149.74593 1.6042777e-38
64.22979 13.026482 150.79311 1.5116146e-38
65.869843 12.891259 149.22778 1.3919065e-38
67.708084 12.802659 148.20216 1.38308e-38
70.728188 12.93602 149.74593 1.6504845e-38
73.553795 13.026482 150.79311 1.9085985e-38
74.838112 12.846807 148.7132 1.1522645e-38
77.40387 12.891259 149.22778 1.0695398e-38
79.435814 12.846807 148.7132 1.2264548e-38
81.734665 12.846807 148.7132 1.6784698e-38
85.208809 13.026482 150.79311 2.1572726e-38
86.931892 12.93602 149.74593 1.8164731e-38
88.631218 12.846807 148.7132 1.9087042e-38
91.880554 12.981093 150.2677 1.7149491e-38
92.590363 12.758815 147.69461 2.0655439e-38
93.591393 12.586398 145.69875 1.5862392e-38
97.15657 12.758815 147.69461 1.7980342e-38
98.095901 12.586398 145.69875 1.3279455e-38
101.72279 12.758815 147.69461 1.3831927e-38
102.9482 12.629064 146.19264 1.4844249e-38
105.20808 12.629064 146.19264 1.1985091e-38
107.46797 12.629064 146.19264 8.4816308e-39
109.35716 12.586398 145.69875 9.3121244e-39
109.03098 12.295623 142.33276 9.5926475e-39
106.65523 11.78979 136.47731 1.0792284e-38
113.05829 12.255177 141.86456 1.0604653e-38
114.12504 12.13542 140.47827 9.7738242e-39
-119.67796 13.725752 134.77133 5.6221412e-39
-113.42796 13.725752 134.77133 6.083841e-39
-110.31047 13.598268 133.51959 6.1760422e-39
-108.92092 13.682992 134.35149 6.5440989e-39
-106.51226 13.640498 133.93425 7.0043567e-39
-104.44187 13.640498 133.93425 7.0057973e-39
-102.69039 13.682992 134.35149 5.9001714e-39
-100.30109 13.640498 133.93425 5.7150585e-39
-100.4136 13.943621 136.91057 6.6384525e-39
-97.369858 13.812077 135.61896 5.9920111e-39
-94.677963 13.725752 134.77133 6.3604307e-39
-90.061646 13.350275 131.08458 7.0058029e-39
-91.080551 13.812077 135.61896 6.8206858e-39
-89.831581 13.943621 136.91057 6.5448191e-39
-89.418388 14.214371 139.56902 5.7154158e-39
-87.829369 14.306973 140.47827 5.8987281e-39
-83.748245 13.988027 137.34659 5.9905692e-39
-81.10849 13.899495 136.47731 6.2685896e-39
-79.501961 13.988027 137.34659 5.7150585e-39
-76.405502 13.812077 135.61896 5.6232202e-39
-76.721695 14.260521 140.02217 5.2540803e-39
-74.800049 14.306973 140.47827 6.3597076e-39
-72.628494 14.306973 140.47827 6.1753121e-39
-71.152245 14.448159 141.86456 7.2823842e-39
-69.415947 14.543842 142.80406 7.1891039e-39
-67.431725 14.592161 143.2785 7.4667782e-39
-65.000931 14.543842 142.80406 7.9270319e-39
-62.793427 14.543842 142.80406 7.2816625e-39
-60.787205 14.592161 143.2785 7.1912619e-39
-60.377678 15.04192 147.69461 6.9143205e-39
-57.699371 14.939593 146.6899 7.0979929e-39
-54.687748 14.739062 144.7209 7.6500905e-39
-52.450611 14.739062 144.7209 1.207441e-38
-50.213474 14.739062 144.7209 1.2813051e-38
-47.498169 14.592161 143.2785 1.4106297e-38
-45.283329 14.592161 143.2785 1.3182558e-38
-43.068489 14.592161 143.2785 1.429288e-38
-40.718372 14.543842 142.80406 1.7515377e-38
-38.257507 14.448159 141.86456 1.641012e-38
-35.712101 14.306973 140.47827 1.6960428e-38
-33.87154 14.448159 141.86456 1.7791632e-38
-31.267149 14.260521 140.02217 1.7239526e-38
-29.102646 14.260521 140.02217 1.7884544e-38
-27.11421 14.353727 140.93735 1.576619e-38
-24.854338 14.306973 140.47827 1.5858015e-38
-22.535971 14.214371 139.56902 1.9085602e-38
-20.247423 14.12296 138.67148 1.539272e-38
-17.817347 13.899495 136.47731 1.2349521e-38
-15.511297 13.725752 134.77133 8.5702293e-39
-13.861124 14.168518 139.1188 9.401799e-39
-11.863666 14.353727 140.93735 1.438145e-38
-9.6850166 14.353727 140.93735 1.4378199e-38
-7.4819164 14.306973 140.47827 9.4032858e-39
-5.3451858 14.400788 141.39943 8.9434007e-39
-3.1593933 14.400788 141.39943 9.6802399e-39
-0.9800272 14.495843 142.33276 1.0142995e-38
1.2121916 14.400788 141.39943 1.2632996e-38
3.3868794 14.353727 140.93735 1.4749157e-38
5.6021442 14.448159 141.86456 1.7145527e-38
7.7951264 14.448159 141.86456 1.7145889e-38
9.8905058 14.306973 140.47827 1.244246e-38
11.945329 14.168518 139.1188 8.2018111e-39
13.916301 13.988027 137.34659 1.0045005e-38
16.787951 14.640801 143.75609 1.0692197e-38
18.947016 14.592161 143.2785 1.1984381e-38
21.303406 14.689768 144.23688 9.5876407e-39
23.771572 14.838651 145.69875 8.2079544e-39
25.506794 14.543842 142.80406 1.4752039e-38
27.806374 14.592161 143.2785 1.3090359e-38
30.021214 14.592161 143.2785 8.1146728e-39
32.023273 14.495843 142.33276 8.3894352e-39
34.797714 14.739062 144.7209 7.0083252e-39
37.795841 15.04192 147.69461 8.2047062e-39
40.078945 15.04192 147.69461 9.9567931e-39
42.073872 14.939593 146.6899 1.2444266e-38
44.798576 15.09361 148.20216 1.2996721e-38
47.089527 15.09361 148.20216 1.3458421e-38
49.043407 14.990582 147.19054 1.364209e-38
50.970798 14.888951 146.19264 1.1798178e-38
54.524487 15.250835 149.74593 1.0784023e-38
56.642624 15.198064 149.22778 1.0139375e-38
58.949432 15.198064 149.22778 1.5671838e-38
61.256237 15.198064 149.22778 1.6962939e-38
62.909996 15.04192 147.69461 1.3922279e-38
64.749611 14.939593 146.6899 1.6963681e-38
67.476204 15.04192 147.69461 1.7057667e-38
69.759308 15.04192 147.69461 1.649726e-38
69.427017 14.495843 142.33276 1.5950211e-38
72.829033 14.739062 144.7209 1.3738605e-38
75.318916 14.788689 145.20818 1.2358905e-38
76.787949 14.640801 143.75609 1.9178899e-38
78.486931 14.543842 142.80406 1.9361838e-38
80.428116 14.495843 142.33276 1.549106e-38
82.356529 14.448159 141.86456 1.8352379e-38
85.963387 14.689768 144.23688 1.5581447e-38
88.193039 14.689768 144.23688 1.7247445e-38
90.121284 14.640801 143.75609 1.5854095e-38
92.03672 14.592161 143.2785 1.1984364e-38
94.251556 14.592161 143.2785 9.2199511e-39
95.514427 14.448159 141.86456 7.2827681e-39
98.029877 14.495843 142.33276 6.8221389e-39
99.900391 14.448159 141.86456 7.0068847e-39
101.75864 14.400788 141.39943 7.6529786e-39
104.28635 14.448159 141.86456 7.5589851e-39
106.83076 14.495843 142.33276 9.5880078e-39
107.61037 14.306973 140.47827 8.5734775e-39
110.14069 14.353727 140.93735 1.0329499e-38
110.15936 14.077694 138.22702 1.0973086e-38
111.22662 13.943621 136.91057 1.1435509e-38
-119.67796 15.809085 134.77133 5.2544376e-39
-110.66951 15.146429 129.12224 5.6232202e-39
-106.75573 14.879139 126.84361 6.4529808e-39
-105.72784 15.011594 127.97279 6.0827648e-39
-104.05838 15.056272 128.35365 6.1763883e-39
-102.68548 15.146429 129.12224 5.9005343e-39
-100.3889 15.101215 128.7368 6.8221249e-39
-98.693459 15.146429 129.12224 5.5299427e-39
-96.697449 15.146429 129.12224 5.8987252e-39
-96.728691 15.470664 131.88632 6.9132303e-39
-93.82914 15.330022 130.68736 6.5440975e-39
-92.368744 15.423497 131.48424 5.8994497e-39
-87.147888 14.879139 126.84361 6.0838438e-39
-83.709869 14.621119 124.64401 7.2816625e-39
-86.535011 15.470664 131.88632 5.9909237e-39
-85.016251 15.565868 132.69794 5.714334e-39
-82.206146 15.423497 131.48424 6.1760366e-39
-81.667542 15.710892 133.93425 6.7281258e-39
-79.105812 15.613911 133.1075 6.6355742e-39
-77.286736 15.662251 133.51959 6.174952e-39
-75.927963 15.809085 134.77133 5.7143368e-39
-73.844635 15.809085 134.77133 6.1753121e-39
-72.44043 15.958697 136.04678 5.8072541e-39
-70.116188 15.908513 135.61896 6.5448191e-39
-68.886246 16.11117 137.34659 6.4526291e-39
-67.843414 16.371868 139.56902 8.5716951e-39
-66.766281 16.641142 141.86456 7.7426406e-39
-64.36158 16.58658 141.39943 8.5724027e-39
-61.972599 16.532377 140.93735 7.6511695e-39
-60.187332 16.641142 141.86456 7.2820352e-39
-59.162022 16.976198 144.7209 7.1001537e-39
-56.357525 16.807001 143.2785 8.9419111e-39
-54.142685 16.807001 143.2785 1.2629031e-38
-51.927849 16.807001 143.2785 1.1062771e-38
-49.22242 16.641142 141.86456 1.1892168e-38
-46.722054 16.532377 140.93735 8.5745789e-39
-44.836452 16.641142 141.86456 9.0359102e-39
-41.953445 16.371868 139.56902 1.5116869e-38
-39.540028 16.266582 138.67148 1.8347672e-38
-37.638454 16.371868 139.56902 1.8068941e-38
-35.366501 16.319056 139.1188 1.7791615e-38
-32.380341 15.908513 135.61896 1.8438788e-38
-30.188971 15.858644 135.19382 1.6500877e-38
-27.924034 15.759835 134.35149 1.4107038e-38
-25.927963 15.809085 134.77133 1.5950945e-38
-23.994596 15.908513 135.61896 1.3918691e-38
-21.761297 15.809085 134.77133 1.2814122e-38
-19.495195 15.662251 133.51959 1.3088568e-38
-17.270803 15.51812 132.29088 8.6642424e-39
-15.272661 15.565868 132.69794 7.3717001e-39
-13.262186 15.613911 133.1075 1.1154615e-38
-11.488234 16.009199 136.47731 1.3180385e-38
-9.3195438 15.908513 135.61896 1.5211577e-38
-7.2688236 16.009199 136.47731 1.4568003e-38
-5.1591191 16.009199 136.47731 1.1520865e-38
-3.0786419 16.162643 137.7854 1.0878382e-38
-0.94569504 16.11117 137.34659 1.3092165e-38
1.1663042 15.958697 136.04678 1.0970578e-38
3.332428 16.266582 138.67148 1.2075486e-38
5.5114946 16.371868 139.56902 1.2352793e-38
7.6196737 16.266582 138.67148 1.1706704e-38
9.5483809 15.908513 135.61896 1.2445353e-38
11.608313 15.858644 135.19382 1.0228669e-38
13.486786 15.613911 133.1075 1.1152806e-38
16.458775 16.532377 140.93735 1.0140463e-38
18.456478 16.371868 139.56902 1.14301e-38
20.54748 16.319056 139.1188 7.6500961e-39
22.994722 16.532377 140.93735 1.4568354e-38
25.091373 16.478525 140.47827 1.6502677e-38
27.4417 16.58658 141.39943 1.2539009e-38
29.724951 16.641142 141.86456 9.8649464e-39
31.917934 16.641142 141.86456 9.3099636e-39
33.777584 16.478525 140.47827 7.9281235e-39
37.034851 16.976198 144.7209 9.0344823e-39
38.623936 16.696064 142.33276 1.1891112e-38
40.689865 16.641142 141.86456 1.1337921e-38
42.882847 16.641142 141.86456 1.1337197e-38
44.781216 16.532377 140.93735 1.2904523e-38
47.113831 16.58658 141.39943 1.1798181e-38
49.461796 16.641142 141.86456 1.2167676e-38
51.996861 16.751348 142.80406 1.1523389e-38
54.025475 16.696064 142.33276 1.1708144e-38
56.411873 16.751348 142.80406 1.2999246e-38
58.233723 16.641142 141.86456 1.4568053e-38
60.031761 16.532377 140.93735 1.5301626e-38
62.61969 16.641142 141.86456 1.484568e-38
64.179321 16.478525 140.47827 1.6964032e-38
66.350876 16.478525 140.47827 1.2536833e-38
69.198639 16.641142 141.86456 1.1523749e-38
71.86441 16.751348 142.80406 1.3649694e-38
74.071915 16.751348 142.80406 1.8997026e-38
75.777588 16.641142 141.86456 1.8716817e-38
76.957962 16.425024 140.02217 1.678036e-38
79.122467 16.425024 140.02217 1.595132e-38
81.551743 16.478525 140.47827 1.5947333e-38
83.723297 16.478525 140.47827 1.5489607e-38
86.175552 16.532377 140.93735 1.2263494e-38
88.935478 16.641142 141.86456 1.4848945e-38
87.946198 16.060022 136.91057 2.157847e-38
91.811386 16.371868 139.56902 2.2495381e-38
93.968887 16.371868 139.56902 1.0966608e-38
97.068802 16.532377 140.93735 6.8210683e-39
98.602982 16.425024 140.02217 7.4660552e-39
98.528206 16.060022 136.91057 6.5451877e-39
100.32612 16.009199 136.47731 8.2050593e-39
103.08828 16.11117 137.34659 8.5713419e-39
106.91387 16.371868 139.56902 7.5621884e-39
106.31878 15.958697 136.04678 8.3872926e-39
110.87006 16.319056 139.1188 7.5600557e-39
111.22662 16.060022 136.91057 9.7748976e-39
-110.04871 16.452799 123.92767 4.9782123e-39
-108.08075 16.741444 126.10184 6.3604279e-39
-104.60216 16.500214 124.28481 6.3611495e-39
-101.8008 16.358782 123.21951 5.9001714e-39
-101.93474 16.692635 125.73419 6.545538e-39
-100.87338 16.839924 126.84361 6.3622397e-39
-98.622528 16.790539 126.47163 6.8235696e-39
-96.384842 16.741444 126.10184 7.283466e-39
-94.991028 16.839924 126.84361 7.465702e-39
-93.580719 16.939568 127.59416 6.7288601e-39
-92.153618 17.040398 128.35365 6.3604279e-39
-89.371529 16.889599 127.21778 5.9001714e-39
-86.892326 16.790539 126.47163 6.0842067e-39
-85.187103 16.839924 126.84361 6.5448191e-39
-83.967209 16.989834 127.97279 6.6370148e-39
-82.725395 17.142437 129.12224 6.2685896e-39
-80.248856 17.040398 128.35365 6.7292132e-39
-78.969818 17.193916 129.50999 7.4671328e-39
-76.967812 17.193916 129.50999 6.5440947e-39
-76.341331 17.509399 131.88632 6.0827508e-39
-75.45636 17.781284 133.93425 5.8987281e-39
-72.263863 17.509399 131.88632 6.2675078e-39
-70.65728 17.617151 132.69794 6.4519018e-39
-68.817741 17.671524 133.1075 7.83413e-39
-67.174789 17.781284 133.93425 1.115316e-38
-65.104393 17.781284 133.93425 7.7444497e-39
-63.626797 17.948507 135.19382 8.018873e-39
-62.318356 18.176424 136.91057 9.1252206e-39
-59.822132 18.061747 136.04678 7.744084e-39
-58.085552 18.176424 136.91057 6.9143345e-39
-55.969151 18.176424 136.91057 6.5437429e-39
-53.852745 18.176424 136.91057 7.8380845e-39
-51.248264 18.00495 135.61896 1.0418103e-38
-48.997749 17.948507 135.19382 9.4050417e-39
-47.353214 18.118904 136.47731 8.8479176e-39
-45.243507 18.118904 136.47731 1.0510313e-38
-42.997734 18.061747 136.04678 1.7512865e-38
-39.76569 17.56311 132.29088 1.8067481e-38
-37.836765 17.617151 132.69794 1.7884912e-38
-35.675713 17.56311 132.29088 1.6872188e-38
-33.425655 17.456018 131.48424 1.6869659e-38
-31.48914 17.509399 131.88632 1.7886705e-38
-29.540741 17.56311 132.29088 1.751357e-38
-27.411667 17.509399 131.88632 1.5669657e-38
-25.372931 17.509399 131.88632 8.1125106e-39
-23.477791 17.617151 132.69794 8.9376063e-39
-21.360783 17.56311 132.29088 8.2007419e-39
-18.740917 17.040398 128.35365 7.5560774e-39
-16.608501 16.889599 127.21778 9.0319375e-39
-14.995816 17.297806 130.29253 7.5560746e-39
-13.021055 17.350224 130.68736 8.2032699e-39
-11.204573 17.671524 133.1075 1.3916868e-38
-9.2037735 17.781284 133.93425 1.4749531e-38
-7.155602 17.836679 134.35149 1.7327417e-38
-5.0629864 17.781284 133.93425 1.7421759e-38
-3.0019157 17.836679 134.35149 1.7606867e-38
-0.92796326 17.892418 134.77133 1.6778199e-38
1.1446391 17.726234 133.51959 1.7608676e-38
3.2387035 17.892418 134.77133 1.8252613e-38
5.3220367 17.892418 134.77133 1.5765492e-38
7.4285846 17.948507 135.19382 1.677854e-38
9.314065 17.56311 132.29088 1.2811956e-38
11.359055 17.56311 132.29088 9.1205276e-39
13.043936 17.091265 128.7368 1.2441738e-38
15.689673 17.836679 134.35149 1.0137203e-38
17.877905 17.948507 135.19382 1.327222e-38
20.030561 18.00495 135.61896 1.5120131e-38
22.267042 18.118904 136.47731 1.7607574e-38
24.689268 18.351198 138.22702 1.6227204e-38
26.486452 18.118904 136.47731 1.8804691e-38
28.327227 17.948507 135.19382 1.9639498e-38
30.608997 18.061747 136.04678 1.6775289e-38
32.712048 18.061747 136.04678 1.5488514e-38
34.705616 18.00495 135.61896 8.5731398e-39
37.389942 18.292568 137.7854 1.0785469e-38
39.394009 18.234312 137.34659 1.2905247e-38
41.124245 18.061747 136.04678 1.4103066e-38
43.501751 18.176424 136.91057 1.2627936e-38
45.473793 18.118904 136.47731 1.0969136e-38
49.138515 18.711025 140.93735 1.2075837e-38
51.317165 18.711025 140.93735 1.3643885e-38
52.805546 18.469593 139.1188 1.4840282e-38
53.238705 17.892418 134.77133 2.0095798e-38
55.322037 17.892418 134.77133 1.9176004e-38
57.405373 17.892418 134.77133 1.4197778e-38
59.862846 18.00495 135.61896 1.4198865e-38
61.765053 17.948507 135.19382 1.3089268e-38
64.25779 18.061747 136.04678 1.4381813e-38
68.078918 18.529366 139.56902 1.1705982e-38
69.784737 18.410206 138.67148 1.7982852e-38
71.92836 18.410206 138.67148 2.1022413e-38
73.131386 18.176424 136.91057 2.1018834e-38
75.009659 18.118904 136.47731 1.9916088e-38
76.394104 17.948507 135.19382 1.4571231e-38
78.979134 18.061747 136.04678 1.0053294e-38
79.330406 17.671524 133.1075 1.4199958e-38
85.063606 18.469593 139.1188 1.1802534e-38
85.829796 18.176424 136.91057 1.7611563e-38
86.572037 17.892418 134.77133 1.2725543e-38
88.655373 17.892418 134.77133 1.8169405e-38
91.597435 18.061747 136.04678 1.4013046e-38
93.113014 17.948507 135.19382 9.0355375e-39
94.023895 17.726234 133.51959 8.3872912e-39
96.988708 17.892418 134.77133 1.1066359e-38
99.072037 17.892418 134.77133 8.6642452e-39
100.52708 17.781284 133.93425 1.1430837e-38
103.23871 17.892418 134.77133 1.2535743e-38
104.66786 17.781284 133.93425 1.2813049e-38
107.74207 17.948507 135.19382 1.1798542e-38
113.38636 18.529366 139.56902 1.0603588e-38
-102.82422 18.10833 122.17232 5.9930831e-39
-101.2224 18.159775 122.51939 5.993453e-39
-99.328453 18.159775 122.51939 5.9012574e-39
-94.74295 17.658123 119.13488 7.1905571e-39
-95.000801 18.057177 121.82719 6.6373721e-39
-93.646637 18.159775 122.51939 6.452978e-39
-93.343781 18.474684 124.64401 5.7154158e-39
-89.604202 18.10833 122.17232 5.6232146e-39
-88.720963 18.315876 123.57257 6.8206843e-39
-86.562714 18.263544 123.21951 5.5306672e-39
-85.144485 18.368507 123.92767 5.9001714e-39
-83.468636 18.421442 124.28481 5.5313861e-39
-82.982254 18.745573 126.47163 5.9920111e-39
-79.856308 18.474684 124.64401 5.8994497e-39
-78.840981 18.690762 126.10184 5.9916453e-39
-77.117149 18.745573 126.47163 5.8076114e-39
-74.942345 18.690762 126.10184 5.8065296e-39
-74.741364 19.138445 129.12224 6.1753149e-39
-73.404678 19.311905 130.29253 5.9916453e-39
-70.961807 19.195917 129.50999 6.9136016e-39
-69.798225 19.429302 131.08458 6.7284901e-39
-68.186386 19.548136 131.88632 6.4529752e-39
-65.348282 19.311905 130.29253 7.9248823e-39
-63.526108 19.370426 130.68736 8.0214052e-39
-62.452148 19.668432 132.69794 9.0341039e-39
-61.344631 19.975752 134.77133 7.743012e-39
-58.529678 19.729137 133.1075 6.0842067e-39
-57.177963 19.975752 134.77133 6.7292272e-39
-55.094631 19.975752 134.77133 6.269314e-39
-52.846153 19.913523 134.35149 1.0233349e-38
-49.837765 19.548136 131.88632 1.0419526e-38
-48.093174 19.668432 132.69794 1.014259e-38
-46.326981 19.790218 133.51959 1.521338e-38
-44.126385 19.729137 133.1075 1.7238084e-38
-41.429428 19.429302 131.08458 1.5855857e-38
-38.929775 19.195917 129.50999 1.6778915e-38
-37.720699 19.608099 132.29088 1.6868597e-38
-34.92577 19.195917 129.50999 1.6408678e-38
-32.629807 19.024525 128.35365 1.6775663e-38
-31.014906 19.253736 129.90009 1.6316128e-38
-28.833179 19.138445 129.12224 1.5485632e-38
-26.363573 18.800707 126.84361 1.779161e-38
-24.40279 18.800707 126.84361 1.8525208e-38
-22.181051 18.582094 125.36868 1.6681665e-38
-20.421158 18.745573 126.47163 1.4288179e-38
-18.35845 18.636271 125.73419 1.115135e-38
-16.132612 18.315876 123.57257 8.6635039e-39
-14.728827 18.968073 127.97279 7.5575305e-39
-12.712865 18.911955 127.59416 1.059783e-38
-10.869106 19.138445 129.12224 1.5578201e-38
-8.8202829 19.024525 128.35365 1.5211916e-38
-6.918519 19.253736 129.90009 1.6409766e-38
-4.8376307 18.968073 127.97279 1.2535371e-38
-2.8425219 18.856167 127.21778 1.2538268e-38
-0.88377458 19.024525 128.35365 1.613317e-38
1.1036371 19.081316 128.7368 9.8617206e-39
3.1122675 19.195917 129.50999 1.1336845e-38
5.1764493 19.429302 131.08458 9.586926e-39
7.1809649 19.370426 130.68736 9.7709445e-39
9.1182737 19.195917 129.50999 9.1270044e-39
11.086982 19.138445 129.12224 1.0229046e-38
12.70267 18.582094 125.36868 1.2075835e-38
15.12428 19.195917 129.50999 7.1905543e-39
17.766518 19.913523 134.35149 1.1613784e-38
19.720491 19.790218 133.51959 1.1616314e-38
21.717237 19.729137 133.1075 1.1615247e-38
24.072037 19.975752 134.77133 1.2168781e-38
26.155371 19.975752 134.77133 2.0929864e-38
28.238705 19.975752 134.77133 1.843916e-38
30.227575 19.913523 134.35149 2.0561081e-38
32.204094 19.851679 133.93425 1.1802497e-38
34.381264 19.913523 134.35149 1.0418123e-38
36.572037 19.975752 134.77133 1.0878384e-38
38.655373 19.975752 134.77133 1.096986e-38
40.738705 19.975752 134.77133 1.2444269e-38
42.822037 19.975752 134.77133 1.1245723e-38
45.187794 20.101385 135.61896 1.2259878e-38
47.284229 20.101385 135.61896 1.2167679e-38
49.380669 20.101385 135.61896 1.2628303e-38
51.315731 20.038372 135.19382 1.8345162e-38
52.744228 19.790218 133.51959 1.6870763e-38
54.303841 19.608099 132.29088 1.6875082e-38
56.17651 19.548136 131.88632 1.3276923e-38
58.573494 19.668432 132.69794 1.7144801e-38
61.189602 19.851679 133.93425 1.5856229e-38
62.869503 19.729137 133.1075 1.5304874e-38
64.528793 19.608099 132.29088 1.5491412e-38
66.167839 19.488539 131.48424 1.4109194e-38
67.787025 19.370426 130.68736 2.203477e-38
70.881187 19.668432 132.69794 2.314075e-38
71.394737 19.253736 129.90009 2.001079e-38
74.983749 19.668432 132.69794 2.0652925e-38
74.735481 19.081316 128.7368 1.4656947e-38
76.497177 19.024525 128.35365 1.1525555e-38
78.715576 19.081316 128.7368 8.3887457e-39
82.177467 19.429302 131.08458 1.0233014e-38
84.460526 19.488539 131.48424 1.0328818e-38
85.194351 19.195917 129.50999 1.0973458e-38
88.796288 19.548136 131.88632 1.3643181e-38
88.665825 19.081316 128.7368 1.1712141e-38
90.927299 19.138445 129.12224 1.272518e-38
93.765518 19.311905 130.29253 1.4753107e-38
96.069855 19.370426 130.68736 1.8994829e-38
96.338448 19.024525 128.35365 1.7613355e-38
98.616074 19.081316 128.7368 1.9640227e-38
101.82191 19.311905 130.29253 2.10235e-38
101.68556 18.911955 127.59416 1.834697e-38
103.35217 18.856167 127.21778 1.9456565e-38
-106.67673 19.662695 120.13044 5.8065296e-39
-96.821419 19.181812 117.19247 6.1753149e-39
-95.009827 19.181812 117.19247 5.7143368e-39
-92.945663 19.129829 116.87487 6.3597062e-39
-92.901329 19.499744 119.13488 7.2816639e-39
-92.33506 19.77285 120.80344 9.5865546e-39
-91.752693 20.053713 122.51939 1.0046814e-38
-89.099388 19.884245 121.48402 7.1901913e-39
-87.715622 19.996904 122.17232 7.1905543e-39
-85.827049 19.996904 122.17232 6.3604279e-39
-83.938477 19.996904 122.17232 6.3597076e-39
-82.282997 20.053713 122.51939 6.4519032e-39
-80.161331 19.996904 122.17232 6.4533452e-39
-78.495117 20.053713 122.51939 6.4515529e-39
-76.81942 20.110847 122.86845 5.9909237e-39
-76.667488 20.579905 125.73419 5.714334e-39
-73.650238 20.284216 123.92767 6.0820459e-39
-71.941254 20.342672 124.28481 7.7444469e-39
-70.020027 20.342672 124.28481 6.7288418e-39
-68.295616 20.401466 124.64401 7.0043567e-39
-68.548103 21.071365 128.7368 6.9125283e-39
-66.35997 21.008652 128.35365 7.3749343e-39
-63.431911 20.700607 126.47163 8.756438e-39
-63.526108 21.390629 130.68736 7.7437281e-39
-62.260578 21.65309 132.29088 7.8348377e-39
-60.031445 21.586872 131.88632 6.8221277e-39
-57.992706 21.586872 131.88632 1.0230125e-38
-56.472065 21.786751 133.1075 6.545552e-39
-54.75243 21.922071 133.93425 6.4547871e-39
-51.404896 21.390629 130.68736 8.9411698e-39
-49.235493 21.326004 130.29253 9.5851057e-39
-46.937782 21.19792 129.50999 1.2447867e-38
-45.071129 21.261768 129.90009 1.3828642e-38
-42.424179 20.946312 127.97279 1.6780709e-38
-39.73843 20.579905 125.73419 1.6315423e-38
-38.128281 20.761492 126.84361 1.6225741e-38
-36.598061 21.008652 128.35365 1.5762957e-38
-34.006672 20.640079 126.10184 1.5856957e-38
-31.41437 20.226095 123.57257 1.6132463e-38
-29.50415 20.226095 123.57257 1.4565842e-38
-27.673223 20.284216 123.92767 1.3640308e-38
-25.392677 19.996904 122.17232 1.5300536e-38
-23.705566 20.168306 123.21951 1.2905244e-38
-21.373339 19.77285 120.80344 1.1612342e-38
-19.505924 19.77285 120.80344 1.1703084e-38
-17.491524 19.608076 119.79675 9.308893e-39
-15.596348 19.553761 119.4649 7.4642433e-39
-14.141354 20.110847 122.86845 9.4000152e-39
-12.383137 20.342672 124.28481 1.5026115e-38
-10.372233 20.168306 123.21951 9.9560742e-39
-8.4917336 20.226095 123.57257 1.0967712e-38
-6.5815139 20.226095 123.57257 1.2814139e-38
-4.6982179 20.342672 124.28481 9.0359102e-39
-2.8258502 20.700607 126.47163 9.4018103e-39
-0.86826974 20.640079 126.10184 1.0233362e-38
1.0874071 20.761492 126.84361 1.1338646e-38
3.0662282 20.88434 127.59416 1.1062411e-38
5.0237517 20.822735 127.21778 1.3088562e-38
6.9903202 20.822735 127.21778 1.3273672e-38
8.9833879 20.88434 127.59416 1.2814488e-38
10.827637 20.640079 126.10184 1.2350259e-38
12.413973 20.053713 122.51939 1.096877e-38
14.726273 20.640079 126.10184 9.8645947e-39
16.97337 21.008652 128.35365 1.0784748e-38
18.957497 21.008652 128.35365 1.6316831e-38
21.130285 21.19792 129.50999 1.327366e-38
23.201963 21.261768 129.90009 1.6596671e-38
24.984234 21.071365 128.7368 1.622538e-38
27.718973 21.65309 132.29088 1.6778196e-38
29.138294 21.19792 129.50999 1.2260249e-38
31.047062 21.134453 129.12224 1.8721119e-38
33.750412 21.586872 131.88632 1.4287813e-38
35.78915 21.586872 131.88632 1.2720853e-38
37.37075 21.326004 130.29253 1.3273672e-38
39.745079 21.521059 131.48424 1.3274024e-38
42.033901 21.65309 132.29088 9.7705956e-39
43.544601 21.390629 130.68736 1.3089633e-38
45.7033 21.455645 131.08458 1.3273675e-38
47.729641 21.455645 131.08458 1.3273308e-38
49.907681 21.521059 131.48424 1.8164348e-38
52.25885 21.65309 132.29088 1.6961888e-38
53.162319 21.19792 129.50999 1.7425727e-38
55.164322 21.19792 129.50999 1.9268524e-38
56.995167 21.134453 129.12224 1.9083074e-38
58.815083 21.071365 128.7368 2.1664922e-38
61.354576 21.261768 129.90009 2.0006466e-38
63.172329 21.19792 129.50999 1.4379315e-38
65.174332 21.19792 129.50999 1.0511395e-38
66.975204 21.134453 129.12224 2.1116413e-38
69.807228 21.390629 130.68736 1.5399606e-38
71.827431 21.390629 130.68736 2.1944013e-38
74.753738 21.65309 132.29088 2.0377778e-38
74.072144 20.88434 127.59416 1.7705916e-38
75.375519 20.700607 126.47163 1.5766228e-38
78.016922 20.88434 127.59416 1.2261314e-38
79.989304 20.88434 127.59416 1.0047903e-38
82.449562 21.008652 128.35365 9.7713173e-39
84.433685 21.008652 128.35365 1.2814844e-38
86.417816 21.008652 128.35365 1.2446798e-38
88.401939 21.008652 128.35365 1.2536484e-38
90.927299 21.134453 129.12224 7.2831142e-39
92.923309 21.134453 129.12224 9.864966e-39
93.796013 20.88434 127.59416 1.1895433e-38
95.205055 20.761492 126.84361 1.3371648e-38
98.030815 20.946312 127.97279 1.8253692e-38
99.419037 20.822735 127.21778 1.8809013e-38
100.79096 20.700607 126.47163 2.1017756e-38
103.65794 20.88434 127.59416 2.277483e-38
-107.27437 21.640263 120.80344 5.5306728e-39
-102.2562 20.993408 117.19247 6.4529892e-39
-97.787346 20.438026 114.09214 6.547696e-39
-97.310852 20.711994 115.62152 6.5462569e-39
-93.763901 20.330458 113.49165 6.3625887e-39
-92.252281 20.3841 113.7911 5.7150613e-39
-92.694458 20.879929 116.559 6.0849256e-39
-90.403984 20.767672 115.93233 5.6250264e-39
-89.575043 20.993408 117.19247 5.7172221e-39
-89.465233 21.400482 119.4649 6.3607936e-39
-88.106636 21.519705 120.13044 5.807973e-39
-86.249626 21.519705 120.13044 5.4384716e-39
-83.233376 21.224104 118.48029 5.4384716e-39
-81.851608 21.341364 119.13488 5.4384744e-39
-80.903954 21.579815 120.466 6.4515473e-39
-79.485809 21.70105 121.14278 7.0972684e-39
-77.613152 21.70105 121.14278 6.5448191e-39
-76.384178 21.885479 122.17232 5.7143382e-39
-75.349426 22.136314 123.57257 5.8061779e-39
-72.607033 21.885479 122.17232 6.4526263e-39
-69.730766 21.579815 120.466 7.1894683e-39
-69.419853 22.073069 123.21951 6.2714608e-39
-68.295616 22.328249 124.64401 6.7295649e-39
-67.540047 22.722277 126.84361 6.9143373e-39
-65.195755 22.589397 126.10184 1.0969136e-38
-63.618477 22.722277 126.84361 8.3862136e-39
-62.206573 22.924551 127.97279 7.4664251e-39
-60.228333 22.924551 127.97279 8.0188758e-39
-58.423458 22.992779 128.35365 1.0048253e-38
-56.439331 22.992779 128.35365 9.2181421e-39
-54.293617 22.924551 127.97279 7.560427e-39
-51.102268 22.392967 125.00529 7.2823898e-39
-50.18821 22.856728 127.59416 1.2723735e-38
-47.932201 22.722277 126.84361 1.6316857e-38
-45.836605 22.655642 126.47163 1.5120097e-38
-43.881569 22.655642 126.47163 1.539633e-38
-41.083187 22.199924 123.92767 1.5301263e-38
-39.167477 22.199924 123.92767 1.631794e-38
-37.251766 22.199924 123.92767 1.7242058e-38
-35.437893 22.263903 124.28481 1.6502317e-38
-33.134705 22.010181 122.86845 1.4195264e-38
-30.796671 21.70105 121.14278 1.5858034e-38
-28.682308 21.519705 120.13044 1.4659119e-38
-26.975578 21.640263 120.80344 1.5673294e-38
-24.761368 21.341364 119.13488 1.6406168e-38
-22.793814 21.224104 118.48029 1.2257711e-38
-21.078127 21.341364 119.13488 1.0782587e-38
-18.820581 20.879929 116.559 7.9234264e-39
-16.791862 20.60153 115.00488 9.7691466e-39
-15.383284 21.108126 117.83286 7.7390407e-39
-13.749626 21.400482 119.4649 9.8609821e-39
-12.03627 21.640263 120.80344 1.216587e-38
-10.168857 21.640263 120.80344 1.0322322e-38
-8.2322636 21.459927 119.79675 1.1428316e-38
-6.5627093 22.073069 123.21951 1.0876221e-38
-4.6314816 21.947653 122.51939 1.2534667e-38
-2.7375424 21.947653 122.51939 1.2995998e-38
-0.84600639 22.010181 122.86845 1.2996366e-38
1.0563384 22.073069 123.21951 1.2536459e-38
2.9867005 22.263903 124.28481 1.428746e-38
4.8519993 22.010181 122.86845 1.2998167e-38
6.7321548 21.947653 122.51939 1.3272953e-38
8.5531979 21.76218 121.48402 1.1796371e-38
10.431132 21.76218 121.48402 1.0045368e-38
12.037792 21.282572 118.80669 1.0137933e-38
13.798316 21.165956 118.15569 9.1230514e-39
16.482809 22.328249 124.64401 1.1151718e-38
18.516624 22.458063 125.36868 1.3274378e-38
20.514242 22.523539 125.73419 1.4195972e-38
22.198997 22.263903 124.28481 1.1705979e-38
24.689436 22.789303 127.21778 1.4753848e-38
26.656004 22.789303 127.21778 2.0560014e-38
28.707254 22.856728 127.59416 1.9639847e-38
30.409733 22.655642 126.47163 1.3830118e-38
32.652027 22.856728 127.59416 1.6966174e-38
34.830513 22.992779 128.35365 1.419671e-38
36.596802 22.856728 127.59416 1.3273661e-38
38.342308 22.722277 126.84361 1.2075484e-38
40.303093 22.722277 126.84361 1.3735741e-38
42.38855 22.789303 127.21778 1.2904525e-38
44.751148 22.992779 128.35365 1.4472941e-38
46.458733 22.856728 127.59416 1.465877e-38
48.719402 22.992779 128.35365 1.5951322e-38
50.403507 22.856728 127.59416 2.0004696e-38
51.915108 22.655642 126.47163 1.9455123e-38
53.091675 22.328249 124.64401 1.9547305e-38
55.177929 22.392967 125.00529 1.8900845e-38
56.945236 22.328249 124.64401 2.139299e-38
58.702358 22.263903 124.28481 2.0377434e-38
62.054234 22.789303 127.21778 2.09306e-38
64.020805 22.789303 127.21778 1.7887446e-38
66.182602 22.856728 127.59416 1.9269636e-38
66.387276 22.263903 124.28481 9.3996382e-39
69.10511 22.523539 125.73419 8.3883814e-39
69.827278 22.136314 123.57257 1.8534207e-38
71.532532 22.073069 123.21951 1.954442e-38
73.437294 22.073069 123.21951 1.5950599e-38
75.127403 22.010181 122.86845 1.1797487e-38
78.82328 22.523539 125.73419 1.2539713e-38
79.151581 22.073069 123.21951 1.0048619e-38
81.993408 22.328249 124.64401 9.3117698e-39
83.920189 22.328249 124.64401 8.8497155e-39
85.3536 22.199924 123.92767 1.0415596e-38
87.520805 22.263903 124.28481 9.6794705e-39
88.929474 22.136314 123.57257 1.05096e-38
91.627319 22.328249 124.64401 1.3649342e-38
92.22142 22.010181 122.86845 1.3368031e-38
96.315994 22.523539 125.73419 1.2267802e-38
98.546936 22.589397 126.10184 1.3467461e-38
101.08741 22.722277 126.84361 2.07462e-38
103.04819 22.722277 126.84361 1.742467e-38
-98.508591 21.969215 112.89745 6.2721881e-39
-97.529327 22.143114 113.7911 7.2834688e-39
-94.277786 21.798027 112.01774 6.4519032e-39
-92.067917 21.685377 111.43884 5.1622504e-39
-90.345261 21.685377 111.43884 5.8083387e-39
-89.082985 21.798027 112.01774 6.1764023e-39
-88.037392 21.969215 112.89745 5.8072541e-39
-85.842751 21.854794 112.30945 6.3607824e-39
-86.355476 22.439146 115.31238 6.8217633e-39
-83.677994 22.201694 114.09214 5.8083359e-39
-82.350044 22.319788 114.69901 5.162242e-39
-79.519554 22.026878 113.19377 5.4391904e-39
-78.59491 22.260586 114.39477 6.268235e-39
-76.623322 22.201694 114.09214 6.5440989e-39
-78.821587 23.376715 120.13044 6.1749464e-39
-77.179558 23.442013 120.466 4.9782123e-39
-76.384178 23.774054 122.17232 6.2667931e-39
-73.660919 23.507677 120.80344 5.7157759e-39
-70.998009 23.247204 119.4649 7.3752987e-39
-69.53653 23.376715 120.13044 8.4812819e-39
-68.82988 23.774054 122.17232 6.3597076e-39
-67.131485 23.841593 122.51939 6.3626027e-39
-65.423409 23.909517 122.86845 7.5575431e-39
-63.524071 23.909517 122.86845 7.4682118e-39
-62.515266 24.25503 124.64401 7.5589711e-39
-60.240273 24.115633 123.92767 7.6518996e-39
-57.826065 23.909517 122.86845 9.5865532e-39
-55.926731 23.909517 122.86845 9.8634905e-39
-54.808136 24.25503 124.64401 9.4954492e-39
-52.276997 23.977831 123.21951 1.0970223e-38
-50.516567 24.046535 123.57257 1.3182581e-38
-48.606346 24.046535 123.57257 1.6595227e-38
-46.166992 23.774054 122.17232 1.5303424e-38
-44.153339 23.706894 121.82719 1.392263e-38
-42.151028 23.640114 121.48402 1.5578937e-38
-40.159969 23.573709 121.14278 1.8804691e-38
-38.395161 23.640114 121.48402 1.6042425e-38
-36.010044 23.311779 119.79675 1.6779993e-38
-34.445232 23.507677 120.80344 1.5302331e-38
-31.951324 23.055607 118.48029 1.5761889e-38
-30.28623 23.182985 119.13488 1.4751689e-38
-28.133739 22.929619 117.83286 1.5673308e-38
-26.169245 22.805002 117.19247 1.7421759e-38
-24.424019 22.86714 117.5118 1.8251481e-38
-22.607489 22.86714 117.5118 1.659092e-38
-20.67827 22.7432 116.87487 1.3549521e-38
-18.669209 22.499304 115.62152 1.1336472e-38
-16.398304 21.854794 112.30945 8.8471917e-39
-15.425429 22.992439 118.15569 9.1252122e-39
-13.636305 23.055607 118.48029 1.1432275e-38
-11.969215 23.376715 120.13044 1.2075859e-38
-10.028402 23.182985 119.13488 1.2720836e-38
-8.1867819 23.182985 119.13488 1.4194177e-38
-6.4521022 23.573709 121.14278 1.1800706e-38
-4.5538592 23.442013 120.466 7.8377159e-39
-2.6916618 23.442013 120.466 1.1155334e-38
-0.82946438 23.442013 120.466 9.7723991e-39
1.0414604 23.640114 121.48402 1.1339725e-38
2.9442759 23.841593 122.51939 1.3185062e-38
4.7571278 23.442013 120.466 1.2169121e-38
6.6008873 23.376715 120.13044 1.6684192e-38
8.4815226 23.442013 120.466 1.4378932e-38
10.145348 22.992439 118.15569 9.216312e-39
11.874235 22.805002 117.19247 9.5840295e-39
13.502373 22.499304 115.62152 1.0043931e-38
15.885939 23.376715 120.13044 8.9408209e-39
17.892467 23.573709 121.14278 1.3088917e-38
19.933104 23.774054 122.17232 1.13372e-38
21.698738 23.640114 121.48402 1.0416336e-38
23.982002 24.046535 123.57257 9.9578777e-39
25.671549 23.841593 122.51939 1.3458792e-38
27.644022 23.909517 122.86845 1.5027187e-38
29.712662 24.046535 123.57257 1.7603265e-38
31.713751 24.115633 123.92767 1.7793092e-38
33.92189 24.325335 125.00529 1.9912839e-38
35.241364 23.909517 122.86845 1.4194541e-38
37.353539 24.046535 123.57257 1.4840648e-38
39.040035 23.909517 122.86845 1.6781446e-38
41.173981 24.046535 123.57257 1.2076211e-38
42.356014 23.640114 121.48402 1.3273661e-38
43.986141 23.507677 120.80344 1.2905247e-38
47.039421 24.115633 123.92767 1.2722659e-38
48.814857 24.046535 123.57257 1.2997443e-38
50.580151 23.977831 123.21951 1.622214e-38
52.335381 23.909517 122.86845 2.0469977e-38
53.775101 23.706894 121.82719 1.8345514e-38
55.816013 23.774054 122.17232 1.8438421e-38
58.365955 24.046535 123.57257 1.7059123e-38
59.762459 23.841593 122.51939 1.7240619e-38
61.832058 23.909517 122.86845 1.7424639e-38
64.2808 24.115633 123.92767 1.3461303e-38
66.387276 24.185131 124.28481 1.9636978e-38
67.723007 23.977831 123.21951 1.816438e-38
68.454269 23.573709 121.14278 1.3461686e-38
70.525032 23.640114 121.48402 1.7888532e-38
71.199593 23.247204 119.4649 1.4015944e-38
73.658432 23.442013 120.466 1.4105245e-38
75.73217 23.507677 120.80344 9.7734893e-39
77.382828 23.442013 120.466 1.0788345e-38
79.467003 23.507677 120.80344 1.1708507e-38
80.881294 23.376715 120.13044 1.1523034e-38
81.155884 22.929619 117.83286 1.3460579e-38
83.894249 23.182985 119.13488 1.1431909e-38
85.499687 23.11912 118.80669 1.0048972e-38
89.05352 23.573709 121.14278 1.1991948e-38
89.419113 23.182985 119.13488 1.4935377e-38
90.7593 23.055607 118.48029 1.2262055e-38
