# .PCD v0.7 - Point Cloud Data file format
VERSION 0.7
FIELDS x y z rgb
SIZE 4 4 4 4
TYPE F F F F
COUNT 1 1 1 1
WIDTH 1066
HEIGHT 1
VIEWPOINT 0 0 0 1 0 0 0
POINTS 1066
DATA ascii
-267.89685 -252.68993 324.26187 5.1622364e-39
-196.66832 -196.53661 252.20367 5.2533558e-39
-180.67245 -204.92537 262.96848 5.5295826e-39
-156.99023 -190.95319 245.03879 6.5444506e-39
-136.33128 -178.76468 229.39803 7.740477e-39
-117.56359 -167.20279 214.56134 6.6362903e-39
-112.074 -174.13347 223.45506 6.451183e-39
-102.24105 -175.04042 224.6189 6.1753149e-39
-86.001373 -163.94029 210.37477 5.9912768e-39
-79.746338 -171.46817 220.03484 5.6221412e-39
-68.493881 -168.88322 216.71773 6.7292132e-39
-58.443626 -168.88322 216.71773 1.2434535e-38
-48.637787 -169.73616 217.81226 7.1927347e-39
-38.930008 -171.46817 220.03484 2.3050708e-38
-29.324385 -175.04042 224.6189 2.2958873e-38
-20.510065 -189.87436 243.65439 2.3418047e-38
-9.4783812 -195.39395 250.73737 2.3509527e-38
2.2822125 -207.45531 266.215 2.3509886e-38
16.230949 -230.19014 295.38922 2.3509886e-38
31.212275 -240.05544 308.04877 2.3509886e-38
50.553322 -266.72827 342.2764 2.3509886e-38
74.72963 -300.06927 385.06097 2.3509886e-38
94.270172 -305.52509 392.06207 2.3509886e-38
-261.98737 -232.41 317.10904 6.2671476e-39
-258.69449 -243.13661 331.74484 5.9905607e-39
-202.75822 -202.61385 276.45404 5.5295798e-39
-188.72791 -201.32332 274.69318 5.1622364e-39
-152.65349 -174.62851 238.26976 4.8856523e-39
-142.39046 -175.59866 239.59349 5.3466305e-39
-105.49233 -141.10608 192.53049 5.6232174e-39
-112.65772 -164.62375 224.6189 6.6359302e-39
-91.303635 -147.01283 200.5899 6.5440975e-39
-85.170441 -152.69449 208.34216 6.451899e-39
-79.34153 -160.44548 218.91791 5.9909237e-39
-67.812347 -157.25253 214.56134 5.1611602e-39
-59.338173 -161.26408 220.03484 5.7125389e-39
-50.157719 -164.62375 224.6189 6.0827564e-39
-40.803646 -169.02545 230.62476 1.1515455e-38
-29.948307 -168.12639 229.39803 7.8359265e-39
-20.863688 -181.65379 247.85533 1.6416616e-38
-9.9407415 -192.73024 262.96848 2.3509886e-38
2.3399901 -200.04912 272.95462 2.3509886e-38
15.288507 -203.92104 278.23761 2.3509886e-38
33.873787 -245.02139 334.3165 2.3509886e-38
48.997833 -243.13661 331.74484 2.3509886e-38
68.046494 -256.97366 350.6246 2.3509886e-38
91.767426 -279.71469 381.65335 2.3509886e-38
114.53443 -292.66446 399.32248 2.3509886e-38
-222.7171 -196.07788 285.60812 6.5437345e-39
-205.39145 -192.25818 280.04434 6.6366462e-39
-161.91411 -161.79105 235.66573 6.2671448e-39
-160.64117 -172.13814 250.73737 6.1753121e-39
-158.21162 -182.76395 266.215 5.8061695e-39
-129.12723 -161.79105 235.66573 5.5299427e-39
-110.92452 -151.83467 221.16322 5.1622392e-39
-94.832283 -143.03265 208.34216 5.438103e-39
-83.55584 -140.32114 204.39255 4.9778479e-39
-75.875153 -143.72699 209.35353 1.078257e-38
-66.16642 -143.72699 209.35353 6.5415681e-39
-59.338173 -151.06 220.03484 5.8987252e-39
-50.420322 -155.01445 225.79491 5.6221412e-39
-42.390453 -164.48756 239.59349 5.1611602e-39
-32.357941 -170.15955 247.85533 5.2533586e-39
-21.354597 -174.1633 253.68723 5.256604e-39
-10.125973 -183.89914 267.8685 9.7741759e-39
2.3252733 -186.21233 271.23792 1.0597492e-38
16.571459 -207.04727 301.58621 2.3509527e-38
33.103928 -224.30121 326.71838 2.3509886e-38
49.763428 -231.31062 336.92834 2.3509886e-38
71.536057 -253.05779 368.60538 2.3509886e-38
91.767426 -262.01556 381.65335 2.3509886e-38
114.53443 -274.14594 399.32248 2.3509886e-38
-269.59375 -187.80789 293.37979 7.2827387e-39
-316.22086 -231.99799 362.41031 2.1944736e-38
-247.43251 -191.72055 299.49185 2.3509883e-38
-285.00238 -233.96407 365.4816 2.3509886e-38
-222.74847 -194.42085 303.71005 2.2947752e-38
-222.78407 -207.57715 324.26187 7.5539278e-39
-197.35916 -197.19829 308.04877 5.8990812e-39
-177.98807 -191.72055 299.49185 5.6224943e-39
-118.8477 -151.69099 236.96059 6.5437345e-39
-101.18702 -142.30804 222.30324 6.7277699e-39
-83.55584 -130.84247 204.39255 5.4373842e-39
-73.381607 -129.61389 202.47337 1.1706334e-38
-64.293785 -130.22528 203.42844 1.1796722e-38
-58.738796 -139.43314 217.81226 7.739391e-39
-51.775707 -148.42882 231.86467 5.6221384e-39
-45.690311 -165.31593 258.24448 6.8185207e-39
-34.330986 -168.34 262.96848 5.8983651e-39
-22.831961 -173.63371 271.23792 5.0700464e-39
-10.941487 -185.28699 289.4418 4.8838587e-39
2.640846 -197.19829 308.04877 4.7009065e-39
16.688158 -194.42085 303.71005 7.1851593e-39
32.60984 -206.02806 321.84201 1.0700877e-38
50.155266 -217.38394 339.58133 2.3509886e-38
71.536057 -235.96376 368.60538 2.3509886e-38
95.135033 -253.28221 395.65897 2.3509886e-38
112.45199 -250.97964 392.06207 2.3509886e-38
-229.07678 -148.02173 249.28802 6.5415681e-39
-241.21976 -164.15231 276.45404 7.2805709e-39
-224.08983 -161.0551 271.23792 8.2958116e-39
-193.27748 -147.17104 247.85533 2.05568e-38
-221.19078 -179.07524 301.58621 2.3509886e-38
-229.69211 -198.50977 334.3165 2.3234376e-38
-102.24105 -133.37375 224.6189 8.2922369e-39
-86.001373 -124.9159 210.37477 6.7277699e-39
-74.429916 -121.94171 205.36584 1.1153516e-38
-64.598495 -121.36379 204.39255 1.262648e-38
-59.036964 -129.98863 218.91791 1.0506338e-38
-55.030182 -146.33006 246.43901 5.0686016e-39
-47.989193 -161.0551 271.23792 4.700538e-39
-38.042442 -173.02541 291.39749 5.1597183e-39
-26.498405 -186.91795 314.79437 6.0831165e-39
-12.444898 -195.47908 329.21243 6.0827564e-39
2.822278 -195.47908 329.21243 5.6224943e-39
18.228603 -196.98277 331.74484 5.0689674e-39
34.957748 -204.86208 345.01462 4.4246742e-39
50.957748 -204.86208 345.01462 5.8983735e-39
74.72963 -228.64072 385.06097 9.1313541e-39
94.270172 -232.79782 392.06207 2.3233662e-38
-247.68927 -147.54851 269.54266 6.5426415e-39
-232.28569 -145.72691 266.215 6.4508088e-39
-221.30611 -146.63205 267.8685 7.741549e-39
-208.88374 -146.63205 267.8685 1.0139046e-38
-206.73387 -154.29909 281.87469 2.3509527e-38
-262.21487 -208.91823 381.65335 1.8804995e-38
-85.583893 -114.60078 209.35353 2.350988e-38
-74.786041 -112.95579 206.34846 1.0324471e-38
-65.530205 -113.49885 207.34052 1.2533564e-38
-57.011185 -115.72431 211.40602 1.1334653e-38
-59.815414 -146.63205 267.8685 7.0940174e-39
-57.370541 -177.50195 324.26187 4.9774934e-39
-43.986576 -184.43562 336.92834 6.451899e-39
-29.276464 -190.38516 347.797 7.0036337e-39
-12.257756 -177.50195 324.26187 5.5285008e-39
18.513426 -184.43562 336.92834 4.7920176e-39
34.407234 -185.88788 339.58133 6.9114324e-39
75.40287 -212.68253 388.52997 4.7934595e-39
96.015915 -218.59038 399.32248 4.7012723e-39
-225.17206 -122.77136 245.03879 6.7277488e-39
-213.80843 -122.77136 245.03879 5.7143242e-39
-204.77174 -124.18253 247.85533 7.649352e-39
-208.88374 -134.20969 267.8685 8.2943585e-39
-206.73387 -141.22719 281.87469 2.341805e-38
-248.99397 -181.57782 362.41031 2.3509883e-38
-84.760971 -103.88346 207.34052 2.3509886e-38
-74.786041 -103.38641 206.34846 2.3507704e-38
-67.144249 -106.44217 212.44743 4.7920176e-39
-60.891529 -113.12963 225.79491 5.438103e-39
-61.339375 -137.62904 274.69318 9.1201633e-39
-63.060181 -178.57652 356.42007 9.765897e-39
-50.27037 -192.92642 385.06097 2.341805e-38
-32.126385 -191.21912 381.65335 2.3509883e-38
-14.556086 -192.92642 385.06097 2.3046752e-38
3.4233189 -200.07185 399.32248 7.5554216e-39
21.348816 -194.66451 388.52997 6.1738702e-39
40.089161 -198.23633 395.65897 6.8199655e-39
77.497391 -200.07185 399.32248 7.0029008e-39
-206.40771 -102.12375 224.6189 6.8206703e-39
-218.78072 -113.9986 250.73737 5.7132438e-39
-214.64026 -118.11903 259.80017 6.6352015e-39
-207.59433 -121.03555 266.215 7.6482702e-39
-206.73387 -128.15529 281.87469 2.3418043e-38
-264.55609 -175.06929 385.06097 1.8996219e-38
-228.84181 -175.06929 385.06097 2.3325492e-38
-85.583893 -95.183304 209.35353 2.341805e-38
-74.429916 -93.370285 205.36584 2.3417323e-38
-66.815109 -96.11647 211.40602 5.0700436e-39
-60.891529 -102.65843 225.79491 6.0831165e-39
-68.787727 -140.05544 308.04877 4.3306835e-39
-33.305336 -179.88771 395.65897 2.3509886e-38
-14.556086 -175.06929 385.06097 2.3509886e-38
-210.79938 -93.658295 229.39803 5.3455417e-39
-223.98978 -104.8081 256.70731 5.3455417e-39
-213.35498 -105.43569 258.24448 6.1742219e-39
-203.8199 -106.7137 261.37473 7.1880109e-39
-201.46677 -112.15134 274.69318 5.439175e-39
-226.18536 -134.41039 329.21243 1.6692377e-38
-246.69894 -157.21214 385.06097 2.3142528e-38
-222.87202 -153.11096 375.0159 1.5494528e-38
-212.88542 -158.62846 388.52997 1.5768606e-38
-66.815109 -86.312546 211.40602 4.8856551e-39
-63.902649 -96.745934 236.96059 5.4384716e-39
-69.784653 -127.59246 312.51324 4.4235952e-39
3.4233189 -163.03482 399.32248 2.341805e-38
21.740536 -161.53908 395.65897 2.0195547e-38
-208.58043 -82.146103 226.98331 5.4366583e-39
-207.90211 -86.230721 238.26976 5.1607945e-39
-205.95538 -90.218269 249.28802 6.2664176e-39
-202.59206 -94.022652 259.80017 7.3716805e-39
-198.93259 -98.16201 271.23792 6.0816606e-39
-233.30931 -122.89574 339.58133 1.4120942e-38
-238.19209 -134.54965 371.78299 2.3050263e-38
-224.82704 -136.91017 378.30551 7.0079244e-39
-214.82074 -141.88873 392.06207 8.0235183e-39
-194.8674 -140.61044 388.52997 7.9320275e-39
-73.038704 -72.933456 201.52724 1.0237634e-38
-69.542252 -79.631432 220.03484 5.6203433e-39
-66.081146 -88.680458 245.03879 4.2406458e-39
-71.335419 -115.61304 319.45798 4.792012e-39
95.135033 -143.19046 395.65897 9.4918283e-39
-206.40771 -70.873749 224.6189 5.8054394e-39
-202.31334 -73.159996 231.86467 4.6076207e-39
-203.60161 -77.758629 246.43901 4.6998163e-39
-202.59206 -81.974457 259.80017 4.8842076e-39
-200.19167 -86.125061 272.95462 7.0954496e-39
-226.18536 -103.87603 329.21243 7.5628891e-39
-242.3709 -119.36632 378.30551 1.0139677e-38
-222.87202 -118.32835 375.0159 8.4834034e-39
-210.98466 -121.49786 385.06097 6.639858e-39
-198.44295 -124.84184 395.65897 8.2082585e-39
-78.544128 -68.380707 216.71773 8.9443844e-39
-70.623222 -70.506531 223.45506 5.1611602e-39
-64.612679 -75.598663 239.59349 4.3313995e-39
-71.867775 -101.55045 321.84201 5.895477e-39
74.72963 -121.49786 385.06097 9.7684152e-39
93.420891 -122.59243 388.52997 1.0227953e-38
114.53443 -125.99778 399.32248 9.5829477e-39
-206.40771 -60.457081 224.6189 4.8842076e-39
-197.01718 -60.773613 225.79491 5.1597183e-39
-196.85239 -64.131271 238.26976 4.9764032e-39
-206.32076 -71.213249 264.58176 4.792012e-39
-201.46677 -73.934776 274.69318 6.9128632e-39
-219.48357 -85.983406 319.45798 8.9461907e-39
-219.28795 -92.125076 342.2764 9.0380009e-39
-217.20578 -98.37085 365.4816 1.2446374e-38
-200.25662 -98.37085 365.4816 6.8271303e-39
-181.76707 -97.544197 362.41031 8.2057488e-39
-175.27037 -103.64072 385.06097 8.9472641e-39
-157.41324 -103.64072 385.06097 1.8995079e-38
-97.689262 -72.5485 269.54266 1.2357764e-38
-71.738327 -61.093472 226.98331 4.7012639e-39
-64.255699 -64.131271 238.26976 4.5136216e-39
-62.130852 -74.888771 278.23761 8.9361237e-39
57.906532 -105.52509 392.06207 2.3141819e-38
74.72963 -103.64072 385.06097 8.1106861e-39
91.767426 -102.72354 381.65335 9.7676935e-39
110.44392 -103.64072 385.06097 9.9535141e-39
-206.40771 -50.040417 224.6189 5.6217726e-39
-193.97054 -49.524536 222.30324 5.1615133e-39
-199.05185 -53.674637 240.93201 5.7143242e-39
-196.66832 -56.18573 252.20367 5.1611602e-39
-196.46138 -59.675526 267.8685 3.779302e-39
-198.86096 -64.481613 289.4418 5.6242823e-39
-184.20187 -64.051735 287.51218 1.0239071e-38
-183.07344 -68.626854 308.04877 8.3930057e-39
-180.38383 -73.341675 329.21243 1.0329108e-38
-161.42001 -71.699699 321.84201 9.0376492e-39
-145.4095 -71.168594 319.45798 1.2821252e-38
-124.15691 -67.660278 303.71005 1.9090134e-38
-85.411377 -52.501419 235.66573 9.0408834e-39
-72.501503 -51.105106 229.39803 9.4921856e-39
-64.97364 -53.674637 240.93201 9.7673278e-39
-62.130852 -61.985546 278.23761 9.3056265e-39
-58.246426 -73.341675 329.21243 6.1742233e-39
-32.413231 -85.783569 385.06097 8.8482693e-39
-14.556086 -85.783569 385.06097 2.3500142e-38
40.460358 -88.960739 399.32248 2.3509129e-38
58.978874 -88.960739 399.32248 2.3506248e-38
74.068306 -85.024422 381.65335 7.8330286e-39
90.171463 -83.545738 375.0159 7.3706043e-39
106.63551 -82.825516 371.78299 7.283089e-39
121.77728 -81.421692 365.4816 8.1178691e-39
146.1582 -85.783569 385.06097 9.4997162e-39
166.99744 -87.343269 392.06207 1.0700052e-38
188.60851 -88.960739 399.32248 1.4942882e-38
201.52899 -86.556396 388.52997 1.872151e-38
217.58678 -85.783569 385.06097 2.0289538e-38
-199.14714 -38.22995 216.71773 3.9662043e-39
-191.01666 -38.618069 218.91791 4.0584028e-39
-181.78716 -38.815102 220.03484 4.8870816e-39
-178.88448 -40.466808 229.39803 5.3491374e-39
-170.9745 -41.123024 233.118 5.2569418e-39
-170.28897 -43.722755 247.85533 4.7970384e-39
-157.88733 -43.472912 246.43901 5.5346006e-39
-157.241 -46.673374 264.58176 4.0583986e-39
-144.97105 -46.673374 264.58176 7.2866721e-39
-136.90051 -48.150379 272.95462 8.4852097e-39
-125.03365 -48.457069 274.69318 8.4870076e-39
-111.58406 -48.150379 272.95462 1.7334173e-38
-87.81057 -42.740223 242.28555 1.023296e-38
-72.501503 -40.466808 229.39803 9.4007144e-39
-63.902649 -41.800877 236.96059 1.1610161e-38
-61.732574 -48.767693 276.45404 8.6609802e-39
-52.622631 -52.467308 297.42639 5.8983623e-39
-38.829529 -52.467308 297.42639 4.6087109e-39
-25.746679 -53.955742 305.86401 4.6090682e-39
-11.3214 -52.831665 299.49185 1.0594203e-38
3.1068776 -63.930756 362.41031 1.6589492e-38
18.228603 -58.521229 331.74484 1.0966978e-38
35.239666 -61.352901 347.797 1.4927431e-38
49.763428 -59.435623 336.92834 9.492564e-39
64.382454 -58.521229 331.74484 9.0351857e-39
80.385414 -58.97488 334.3165 9.4950849e-39
91.627548 -56.353775 319.45798 8.2025146e-39
108.8615 -57.634544 326.71838 1.0147244e-38
117.76776 -54.732086 310.26495 9.6844802e-39
127.56749 -52.831665 299.49185 1.0423112e-38
139.51862 -52.107944 295.38922 1.1068118e-38
152.17496 -51.753468 293.37979 1.014366e-38
165.7804 -51.753468 293.37979 1.1619847e-38
196.78894 -56.774326 321.84201 1.0146173e-38
198.38965 -53.201118 301.58621 1.5958854e-38
228.34375 -57.201202 324.26187 1.7984293e-38
234.56319 -55.128693 312.51324 1.6604578e-38
238.6786 -52.831665 299.49185 2.3326213e-38
-189.61858 -26.831387 206.34846 4.5200956e-39
-176.668 -26.327511 202.47337 3.9654827e-39
-170.47981 -26.831387 206.34846 4.6122912e-39
-161.68405 -26.960382 207.34052 5.0743498e-39
-159.7489 -28.32202 217.81226 4.7026904e-39
-152.73341 -28.905977 222.30324 4.0583986e-39
-146.96959 -29.828508 229.39803 4.8888781e-39
-139.29501 -30.476955 234.38493 5.6264319e-39
-130.55405 -30.982098 238.26976 5.4406071e-39
-116.29184 -30.149246 231.86467 5.7128892e-39
-107.8587 -30.811867 236.96059 4.7923777e-39
-100.17206 -31.86227 245.03879 4.6079864e-39
-84.488007 -30.312214 233.118 5.3459046e-39
-74.482414 -30.643496 235.66573 8.9390118e-39
-64.255699 -30.982098 238.26976 1.0229748e-38
-58.72123 -34.193657 262.96848 7.280215e-39
-47.100506 -34.615799 266.215 5.1604441e-39
-35.189262 -35.0485 269.54266 8.2057992e-39
-21.869167 -33.781685 259.80017 1.105952e-38
-9.8209734 -33.781685 259.80017 9.5876449e-39
2.1495259 -32.603252 250.73737 1.4931024e-38
14.627892 -34.615799 266.215 2.2399186e-38
28.748148 -36.893158 283.72913 2.3507715e-38
42.183567 -37.137482 285.60812 1.8709563e-38
53.652042 -35.947178 276.45404 1.9356775e-38
66.472557 -35.947178 276.45404 1.3186155e-38
78.28936 -35.492149 272.95462 1.5117234e-38
88.701965 -34.615799 266.215 1.1615933e-38
103.60581 -35.492149 272.95462 1.1707403e-38
112.01048 -34.193657 262.96848 1.1437265e-38
119.82188 -32.98682 253.68723 1.1068848e-38
130.81706 -32.793915 252.20367 1.1251435e-38
138.46431 -31.86227 245.03879 1.0791896e-38
146.49844 -31.154221 239.59349 1.0699699e-38
162.11269 -32.044342 246.43901 1.143547e-38
163.27806 -30.149246 231.86467 1.0976276e-38
157.13455 -27.222136 209.35353 1.0975574e-38
193.0883 -31.504269 242.28555 1.088409e-38
-156.79285 -15.032332 179.69511 4.7041239e-39
-154.91428 -15.685912 187.50795 4.2435101e-39
-151.48776 -16.251169 194.26498 5.2580166e-39
-141.83983 -16.178295 193.39384 4.7952405e-39
-140.42787 -17.098387 204.39255 5.4409631e-39
-131.57277 -17.179808 205.36584 4.7948888e-39
-122.63293 -17.262009 206.34846 5.435938e-39
-113.60712 -17.344999 207.34052 5.8050849e-39
-105.00137 -17.513397 209.35353 5.8983595e-39
-96.226875 -17.685097 211.40602 7.0979957e-39
-89.041824 -18.221008 217.81226 7.5578865e-39
-79.746338 -18.406937 220.03484 5.6235817e-39
-68.151413 -18.038799 215.63414 7.2805891e-39
-60.574383 -18.790415 224.6189 7.2823898e-39
-49.640629 -18.596699 222.30324 1.1243199e-38
-40.803646 -19.292833 230.62476 1.2808707e-38
-28.580111 -18.313501 218.91791 1.493175e-38
-17.883162 -17.772215 212.44743 8.4762498e-39
-8.5804291 -18.988209 226.98331 1.1705985e-38
1.8959919 -18.501331 221.16322 1.3270413e-38
11.968275 -18.221008 217.81226 1.2344855e-38
23.367479 -19.292833 230.62476 1.6964007e-38
34.807205 -19.714533 235.66573 1.3833689e-38
45.487602 -19.607389 234.38493 1.1340076e-38
57.931389 -20.155083 240.93201 1.2448239e-38
68.720657 -20.04311 239.59349 1.797674e-38
77.256554 -19.396557 231.86467 1.3550262e-38
87.538605 -19.292833 230.62476 1.4380727e-38
99.835426 -19.607389 234.38493 1.3735322e-38
106.09229 -18.790415 224.6189 1.0605709e-38
118.98787 -19.19021 229.39803 1.0420602e-38
121.24239 -17.949053 214.56134 1.0792613e-38
122.64986 -16.780277 200.5899 9.4071716e-39
137.71709 -17.513397 209.35353 9.5007952e-39
141.91458 -16.85869 201.52724 1.2086589e-38
147.80693 -16.473789 196.92615 1.1714566e-38
166.84329 -17.513397 209.35353 9.5011553e-39
-150.52113 -6.4310384 172.50731 3.5952638e-39
-134.4539 -6.0670176 162.74275 5.0736197e-39
-130.85713 -6.2558742 167.80867 5.2572921e-39
-130.16577 -6.6162949 177.47665 4.515781e-39
-122.94723 -6.6712017 178.94949 6.7284761e-39
-116.09362 -6.7552924 181.20515 6.2671476e-39
-106.79284 -6.6989985 179.69511 7.2820156e-39
-99.705833 -6.7837958 181.96974 6.7292104e-39
-95.287582 -7.0826416 189.98602 7.006163e-39
-84.250137 -6.9002562 185.09369 6.5440989e-39
-75.022476 -6.8415303 183.51842 8.019952e-39
-70.09095 -7.2096844 193.39384 8.573123e-39
-61.397667 -7.2421603 194.26498 9.3099678e-39
-51.234722 -7.0826416 189.98602 1.1064217e-38
-43.575935 -7.2749305 195.14401 1.3367664e-38
-34.37064 -7.2421603 194.26498 1.8069287e-38
-25.2479 -7.2096844 193.39384 1.2349893e-38
-15.783834 -6.9902592 187.50795 2.3230753e-38
-7.4103708 -7.3079982 196.03104 2.3142544e-38
1.6359223 -7.1139808 190.82668 2.3507362e-38
10.62654 -7.2096844 193.39384 1.3362622e-38
20.136951 -7.4090304 198.74115 1.5300156e-38
30.623648 -7.7296138 207.34052 1.7791615e-38
40.433422 -7.7669549 208.34216 1.8808294e-38
49.145588 -7.6197138 204.39255 1.8533865e-38
59.469803 -7.7296138 207.34052 1.2720498e-38
67.148216 -7.5128956 201.52724 2.0378147e-38
80.639008 -7.9199982 212.44743 1.9273239e-38
87.474854 -7.6559982 205.36584 1.6411929e-38
97.931343 -7.7296138 207.34052 1.8715398e-38
104.53139 -7.5128956 201.52724 1.3368015e-38
110.27022 -7.2749305 195.14401 8.2089998e-39
115.15161 -7.0207844 188.32677 9.5000917e-39
122.81264 -6.9599986 186.69623 8.671759e-39
126.5405 -6.6989985 179.69511 1.0791534e-38
128.96303 -6.405417 171.82004 8.7628756e-39
146.25412 -6.8415303 183.51842 9.8724714e-39
-135.36073 1.4109367 155.13248 5.4384548e-39
-130.51385 1.4367781 157.97372 4.8849236e-39
-124.5566 1.4527422 159.72899 5.5299427e-39
-116.2878 1.4420604 158.55452 6.6362931e-39
-111.81239 1.4801525 162.74275 7.5589486e-39
-105.45909 1.4971008 164.60622 8.2965389e-39
-99.342178 1.5203116 167.15825 7.1909074e-39
-93.400322 1.5503573 170.46178 7.9277536e-39
-85.495186 1.5503573 170.46178 7.4660538e-39
-76.981499 1.5381976 169.12482 5.7150585e-39
-70.240166 1.5627108 171.82004 5.992367e-39
-63.537731 1.5944732 175.3123 7.0068707e-39
-54.303913 1.5627108 171.82004 7.9281081e-39
-46.521126 1.5689616 172.50731 5.9001574e-39
-38.988995 1.5880178 174.60254 1.6595216e-38
-30.643702 1.5752627 173.20012 1.8623201e-38
-22.521128 1.5689616 172.50731 1.0879472e-38
-13.909125 1.5028368 165.23689 8.2932907e-39
-6.4693713 1.5565095 171.1382 1.3089989e-38
1.4968357 1.5880178 174.60254 1.4753146e-38
9.3296003 1.5442536 169.79066 1.6221424e-38
17.835587 1.6009812 176.02786 1.5489607e-38
25.788334 1.5880178 174.60254 1.760905e-38
34.162117 1.6009812 176.02786 1.1247154e-38
43.387943 1.6411732 180.44698 8.7586017e-39
52.6371 1.6691082 183.51842 1.9457633e-38
60.888638 1.6620356 182.7408 1.7055124e-38
68.207161 1.634335 179.69511 1.7701946e-38
74.978447 1.6009812 176.02786 1.8901582e-38
84.873825 1.634335 179.69511 1.8621393e-38
91.679176 1.6075426 176.7493 1.3833683e-38
100.70132 1.6208282 178.21004 1.502755e-38
109.41792 1.6275536 178.94949 8.6656703e-39
110.81921 1.5321891 168.46417 9.9603398e-39
115.91496 1.4971008 164.60622 9.1320253e-39
121.2349 1.4690652 161.5237 1.0150467e-38
133.21597 1.5203116 167.15825 8.9461907e-39
-127.99416 8.1368723 146.6899 4.9774934e-39
-118.41649 8.4233818 151.85503 5.7128921e-39
-113.37019 8.5743389 154.57645 6.6362945e-39
-104.70065 8.4531469 152.39162 6.9139702e-39
-96.272758 8.3353329 150.2677 5.991651e-39
-90.566368 8.4531469 152.39162 6.8206843e-39
-85.616966 8.6675377 156.25662 6.0841983e-39
-77.527893 8.5743389 154.57645 6.2682322e-39
-72.975029 8.8930874 160.32278 7.0965524e-39
-64.344093 8.7308044 157.39719 8.1125022e-39
-57.676315 8.8274555 159.13959 7.6518884e-39
-50.111332 8.795002 158.55452 9.1266625e-39
-41.242134 8.4831219 152.93201 1.5120822e-38
-33.909443 8.4233818 151.85503 1.7333168e-38
-26.586348 8.3353329 150.2677 1.6689592e-38
-19.965538 8.4831219 152.93201 8.8497267e-39
-13.10571 8.6362467 155.69252 8.8486365e-39
-5.8854933 8.6362467 155.69252 1.3551338e-38
1.3693275 8.8601494 159.72899 1.1521591e-38
8.5859365 8.6675377 156.25662 1.1154252e-38
15.662073 8.5743389 154.57645 6.8203186e-39
23.94631 8.9933853 162.13094 1.7238087e-38
31.114195 8.8930874 160.32278 1.6684211e-38
40.037525 9.2364492 166.51285 1.9357515e-38
47.393559 9.1656723 165.23689 9.5880106e-39
54.846256 9.1306887 164.60622 1.2165521e-38
60.62859 8.8601494 159.72899 1.945403e-38
65.841286 8.5743389 154.57645 1.4109135e-38
76.006416 8.9262705 160.92101 1.2994915e-38
82.241615 8.795002 158.55452 2.1301529e-38
89.594559 8.795002 158.55452 1.641121e-38
96.947495 8.795002 158.55452 1.4198161e-38
103.91839 8.7627859 157.97372 1.0787979e-38
109.24359 8.6051817 155.13248 9.221358e-39
112.78648 8.3353329 150.2677 8.5824514e-39
123.18896 8.5743389 154.57645 1.0328776e-38
-110.31047 13.598268 133.51959 6.1760422e-39
-104.44187 13.640498 133.93425 7.0057973e-39
-100.4136 13.943621 136.91057 6.6384525e-39
-90.061646 13.350275 131.08458 7.0058029e-39
-89.418388 14.214371 139.56902 5.7154158e-39
-81.10849 13.899495 136.47731 6.2685896e-39
-76.721695 14.260521 140.02217 5.2540803e-39
-71.152245 14.448159 141.86456 7.2823842e-39
-65.000931 14.543842 142.80406 7.9270319e-39
-60.377678 15.04192 147.69461 6.9143205e-39
-52.450611 14.739062 144.7209 1.207441e-38
-45.283329 14.592161 143.2785 1.3182558e-38
-38.257507 14.448159 141.86456 1.641012e-38
-31.267149 14.260521 140.02217 1.7239526e-38
-24.854338 14.306973 140.47827 1.5858015e-38
-17.817347 13.899495 136.47731 1.2349521e-38
-11.863666 14.353727 140.93735 1.438145e-38
-5.3451858 14.400788 141.39943 8.9434007e-39
1.2121916 14.400788 141.39943 1.2632996e-38
7.7951264 14.448159 141.86456 1.7145889e-38
13.916301 13.988027 137.34659 1.0045005e-38
21.303406 14.689768 144.23688 9.5876407e-39
27.806374 14.592161 143.2785 1.3090359e-38
34.797714 14.739062 144.7209 7.0083252e-39
42.073872 14.939593 146.6899 1.2444266e-38
49.043407 14.990582 147.19054 1.364209e-38
56.642624 15.198064 149.22778 1.0139375e-38
62.909996 15.04192 147.69461 1.3922279e-38
69.759308 15.04192 147.69461 1.649726e-38
75.318916 14.788689 145.20818 1.2358905e-38
80.428116 14.495843 142.33276 1.549106e-38
88.193039 14.689768 144.23688 1.7247445e-38
94.251556 14.592161 143.2785 9.2199511e-39
99.900391 14.448159 141.86456 7.0068847e-39
106.83076 14.495843 142.33276 9.5880078e-39
110.15936 14.077694 138.22702 1.0973086e-38
-101.2224 18.159775 122.51939 5.993453e-39
-95.000801 18.057177 121.82719 6.6373721e-39
-89.604202 18.10833 122.17232 5.6232146e-39
-85.144485 18.368507 123.92767 5.9001714e-39
-79.856308 18.474684 124.64401 5.8994497e-39
-74.942345 18.690762 126.10184 5.8065296e-39
-70.961807 19.195917 129.50999 6.9136016e-39
-65.348282 19.311905 130.29253 7.9248823e-39
-61.344631 19.975752 134.77133 7.743012e-39
-55.094631 19.975752 134.77133 6.269314e-39
-48.093174 19.668432 132.69794 1.014259e-38
-41.429428 19.429302 131.08458 1.5855857e-38
-34.92577 19.195917 129.50999 1.6408678e-38
-28.833179 19.138445 129.12224 1.5485632e-38
-22.181051 18.582094 125.36868 1.6681665e-38
-16.132612 18.315876 123.57257 8.6635039e-39
-10.869106 19.138445 129.12224 1.5578201e-38
-4.8376307 18.968073 127.97279 1.2535371e-38
1.1036371 19.081316 128.7368 9.8617206e-39
7.1809649 19.370426 130.68736 9.7709445e-39
12.70267 18.582094 125.36868 1.2075835e-38
19.720491 19.790218 133.51959 1.1616314e-38
26.155371 19.975752 134.77133 2.0929864e-38
32.204094 19.851679 133.93425 1.1802497e-38
38.655373 19.975752 134.77133 1.096986e-38
45.187794 20.101385 135.61896 1.2259878e-38
51.315731 20.038372 135.19382 1.8345162e-38
56.17651 19.548136 131.88632 1.3276923e-38
62.869503 19.729137 133.1075 1.5304874e-38
67.787025 19.370426 130.68736 2.203477e-38
74.983749 19.668432 132.69794 2.0652925e-38
78.715576 19.081316 128.7368 8.3887457e-39
85.194351 19.195917 129.50999 1.0973458e-38
90.927299 19.138445 129.12224 1.272518e-38
96.338448 19.024525 128.35365 1.7613355e-38
101.68556 18.911955 127.59416 1.834697e-38
-98.508591 21.969215 112.89745 6.2721881e-39
-92.067917 21.685377 111.43884 5.1622504e-39
-88.037392 21.969215 112.89745 5.8072541e-39
-83.677994 22.201694 114.09214 5.8083359e-39
-78.59491 22.260586 114.39477 6.268235e-39
-77.179558 23.442013 120.466 4.9782123e-39
-70.998009 23.247204 119.4649 7.3752987e-39
-67.131485 23.841593 122.51939 6.3626027e-39
-62.515266 24.25503 124.64401 7.5589711e-39
-55.926731 23.909517 122.86845 9.8634905e-39
-50.516567 24.046535 123.57257 1.3182581e-38
-44.153339 23.706894 121.82719 1.392263e-38
-38.395161 23.640114 121.48402 1.6042425e-38
-31.951324 23.055607 118.48029 1.5761889e-38
-26.169245 22.805002 117.19247 1.7421759e-38
-20.67827 22.7432 116.87487 1.3549521e-38
-15.425429 22.992439 118.15569 9.1252122e-39
-10.028402 23.182985 119.13488 1.2720836e-38
-4.5538592 23.442013 120.466 7.8377159e-39
1.0414604 23.640114 121.48402 1.1339725e-38
6.6008873 23.376715 120.13044 1.6684192e-38
11.874235 22.805002 117.19247 9.5840295e-39
17.892467 23.573709 121.14278 1.3088917e-38
23.982002 24.046535 123.57257 9.9578777e-39
29.712662 24.046535 123.57257 1.7603265e-38
35.241364 23.909517 122.86845 1.4194541e-38
41.173981 24.046535 123.57257 1.2076211e-38
47.039421 24.115633 123.92767 1.2722659e-38
52.335381 23.909517 122.86845 2.0469977e-38
58.365955 24.046535 123.57257 1.7059123e-38
64.2808 24.115633 123.92767 1.3461303e-38
68.454269 23.573709 121.14278 1.3461686e-38
73.658432 23.442013 120.466 1.4105245e-38
79.467003 23.507677 120.80344 1.1708507e-38
83.894249 23.182985 119.13488 1.1431909e-38
89.419113 23.182985 119.13488 1.4935377e-38
94.682419 23.11912 118.80669 1.6136081e-38
-94.075706 25.980602 107.81707 5.6232202e-39
-89.523323 26.111156 108.35886 5.9920027e-39
-84.711037 26.176929 108.63181 5.7154158e-39
-80.689499 26.510818 110.01742 6.0831165e-39
-75.203758 26.376245 109.45895 5.9005231e-39
-71.953857 27.063128 112.30945 5.8061779e-39
-68.898605 27.936131 115.93233 6.5451765e-39
-63.522263 27.936131 115.93233 6.3589887e-39
-57.990032 27.861235 115.62152 6.4529892e-39
-52.487385 27.786739 115.31238 7.2820338e-39
-46.640957 27.492701 114.09214 1.2999235e-38
-40.703857 27.063128 112.30945 1.8716115e-38
-35.403328 26.992832 112.01774 1.6597422e-38
-29.974953 26.784126 111.15162 1.6963294e-38
-24.075705 25.980602 107.81707 1.8984039e-38
-18.840202 25.659853 106.48599 1.023156e-38
-14.473732 26.715271 110.86588 9.0326606e-39
-9.4293032 26.992832 112.01774 8.6638907e-39
-4.201757 26.784126 111.15162 7.9284865e-39
0.93837166 26.376245 109.45895 8.573137e-39
6.1551127 26.992832 112.01774 9.9546295e-39
11.262161 26.784126 111.15162 8.2940039e-39
16.587809 27.063128 112.30945 1.4566943e-38
21.796143 27.063128 112.30945 1.880506e-38
26.864555 26.922903 111.72753 1.6224672e-38
32.724125 27.492701 114.09214 2.1849659e-38
38.732395 28.011431 116.24482 1.5951685e-38
43.769302 27.786739 115.31238 8.8475659e-39
49.248577 27.861235 115.62152 1.3645341e-38
54.031086 27.565624 114.39477 2.1209688e-38
58.713173 27.276222 113.19377 1.677748e-38
63.962517 27.276222 113.19377 1.917564e-38
69.211861 27.276222 113.19377 1.6134988e-38
73.879478 27.063128 112.30945 1.7334984e-38
79.087807 27.063128 112.30945 2.249539e-38
81.948654 26.309469 109.18185 1.7333528e-38
86.139648 26.045715 108.08729 1.7056965e-38
-90.024597 29.646509 103.17423 5.9008875e-39
-87.329124 30.373138 105.70301 6.5459037e-39
-83.037735 30.598125 106.48599 5.5306672e-39
-74.0756 29.021641 100.9996 5.6221426e-39
-71.918159 30.078255 104.67677 6.6377322e-39
-69.075706 30.980602 107.81707 5.6228628e-39
-63.915916 30.903343 107.5482 7.2823842e-39
-59.075706 30.980602 107.81707 6.7295677e-39
-54.621925 31.293537 108.90613 1.1705985e-38
-49.075706 30.980602 107.81707 1.4198144e-38
-43.96579 30.903343 107.5482 1.8991948e-38
-38.784821 30.749977 107.01446 1.2629385e-38
-32.923386 29.932949 104.17108 1.1432292e-38
-27.890364 29.717604 103.42165 1.686894e-38
-22.874779 29.435251 102.43902 1.7512498e-38
-17.341549 28.164183 98.015518 1.2720487e-38
-13.469573 29.646509 103.17423 1.1615584e-38
-8.6229973 29.435251 102.43902 8.6653186e-39
-3.9189463 29.78904 103.67026 8.8500756e-39
0.88449389 29.646509 103.17423 1.0601797e-38
5.6964388 29.78904 103.67026 9.8627912e-39
10.580432 30.005424 104.42331 8.0163479e-39
15.275105 29.717604 103.42165 1.1333951e-38
20.265663 30.005424 104.42331 8.9422754e-39
25.415977 30.373138 105.70301 7.9284893e-39
30.694092 30.749977 107.01446 7.0983586e-39
35.924297 30.980602 107.81707 1.5116133e-38
40.720692 30.826469 107.28067 1.3827586e-38
45.924297 30.980602 107.81707 1.0049726e-38
50.670944 30.826469 107.28067 1.5578917e-38
55.784836 30.903343 107.5482 2.2496824e-38
59.438339 30.224977 105.18739 1.7517186e-38
64.47364 30.298878 105.44456 1.3372391e-38
68.360771 29.860821 103.92007 2.0840902e-38
73.712914 30.078255 104.67677 1.2728426e-38
77.2547 29.575754 102.92799 1.3275858e-38
82.224205 29.646509 103.17423 1.585698e-38
-84.562431 32.342113 96.914223 5.3466333e-39
-79.531883 32.125538 96.265244 6.5455408e-39
-75.235535 32.197407 96.480598 6.267512e-39
-71.723999 32.635468 97.793259 6.8221249e-39
-68.430214 33.23843 99.600067 7.3745826e-39
-65.319817 34.024208 101.95467 6.2689511e-39
-60.591682 34.024208 101.95467 9.3099664e-39
-55.34024 33.705482 100.9996 7.5618689e-39
-50.775311 33.784603 101.23669 1.4101981e-38
-45.231064 33.161846 99.370575 1.825549e-38
-41.385639 33.784603 101.23669 1.4931384e-38
-36.014473 33.161846 99.370575 1.5949157e-38
-30.4928 32.197407 96.480598 1.7515749e-38
-25.561058 31.631298 94.784241 1.5949503e-38
-21.212074 31.700972 94.993011 1.2905597e-38
-16.51576 31.152037 93.348114 7.0951076e-39
-12.511737 31.982758 95.837395 1.345986e-38
-8.1214352 32.197407 96.480598 1.7696186e-38
-3.7136254 32.784149 98.238785 1.8064248e-38
0.83457887 32.488129 97.351753 1.8435188e-38
5.3979921 32.784149 98.238785 1.7606516e-38
9.7538357 32.125538 96.265244 1.0318709e-38
14.313974 32.342113 96.914223 8.5698776e-39
19.152674 32.934189 98.688393 7.8362908e-39
23.948542 33.23843 99.600067 1.5300908e-38
28.370914 33.009727 98.914742 2.0005031e-38
32.882652 32.934189 98.688393 1.7055138e-38
37.805355 33.23843 99.600067 1.7056239e-38
42.132381 33.009727 98.914742 1.3459142e-38
47.261528 33.39267 100.06225 1.0878393e-38
51.543133 33.161846 99.370575 1.5024988e-38
55.511887 32.784149 98.238785 1.7051887e-38
59.124931 32.2696 96.696922 1.1891468e-38
65.217743 33.085609 99.142136 1.7336029e-38
68.093544 32.2696 96.696922 1.4377849e-38
73.735123 32.784149 98.238785 1.1430114e-38
79.375793 33.23843 99.600067 9.0326732e-39
-73.162796 33.659634 88.556114 6.2685868e-39
-70.356239 34.293392 90.223488 5.9001714e-39
-69.82402 36.185963 95.202713 6.3597062e-39
-65.121498 36.026901 94.784241 6.8214088e-39
-61.674736 36.589825 96.265244 8.4802057e-39
-57.210453 36.589825 96.265244 7.9263144e-39
-52.746166 36.589825 96.265244 7.4700012e-39
-47.643791 36.106258 94.993011 1.7058023e-38
-42.306641 35.328106 92.945747 1.6684197e-38
-37.752209 35.101158 92.348671 1.7147698e-38
-33.115005 34.729324 91.370399 1.7243879e-38
-29.186899 35.101158 92.348671 1.4844623e-38
-24.433365 34.437481 90.602577 1.6131737e-38
-19.613609 33.385418 87.834679 9.1201801e-39
-15.572003 33.453552 88.013931 8.0167038e-39
-11.778832 34.293392 90.223488 6.7284901e-39
-7.7404728 34.951473 91.954857 1.631794e-38
-3.4835076 35.026157 92.151344 1.2720487e-38
0.79509342 35.252132 92.745865 1.4011595e-38
5.0527048 34.951473 91.954857 1.6134988e-38
9.1416702 34.293392 90.223488 1.1519782e-38
13.160576 33.868267 89.105019 8.1107043e-39
17.92231 35.101158 92.348671 8.758596e-39
22.641308 35.79092 94.163383 1.0787638e-38
26.658876 35.328106 92.945747 2.1941508e-38
30.969221 35.328106 92.945747 1.7054081e-38
35.432293 35.481041 93.348114 1.198473e-38
39.761295 35.481041 93.348114 1.714735e-38
45.266041 36.4272 95.837395 1.6317936e-38
48.210602 35.328106 92.945747 2.0009734e-38
52.407997 35.252132 92.745865 2.0930591e-38
56.466209 35.101158 92.348671 1.6959694e-38
60.879227 35.176483 92.546844 1.3825759e-38
64.616425 34.87711 91.759209 1.0417036e-38
69.018593 34.951473 91.954857 1.2724487e-38
74.07267 35.328106 92.945747 1.6046026e-38
-71.98037 37.15604 87.124908 7.5596885e-39
-68.633232 37.535187 88.013931 6.8221277e-39
-65.082886 37.844116 88.738327 6.6370204e-39
-61.093365 37.922146 88.921295 8.7564296e-39
-57.205555 38.079174 89.289497 7.6497262e-39
-53.39642 38.317169 89.847557 9.954984e-39
-49.332531 38.397163 90.035133 1.3189055e-38
-44.598518 37.922146 88.921295 1.853566e-38
-39.104149 36.637928 85.910019 1.3551687e-38
-35.61673 37.15604 87.124908 1.2168055e-38
-31.449259 37.006519 86.7743 1.5948441e-38
-27.480408 37.081131 86.949249 1.6042076e-38
-23.214136 36.71106 86.08149 1.456622e-38
-18.343393 35.032841 82.146339 1.3826493e-38
-15.321851 36.932209 86.60006 9.6794733e-39
-11.328535 37.006519 86.7743 9.5872749e-39
-7.2751136 36.858196 86.426506 1.1429392e-38
-3.2868581 37.081131 86.949249 1.1982215e-38
0.74690592 37.15604 87.124908 1.0970591e-38
4.777658 37.081131 86.949249 1.1059908e-38
8.7394371 36.784481 86.253654 7.648287e-39
12.588377 36.348301 85.230888 1.087297e-38
16.977118 37.306778 87.478355 1.7421408e-38
20.656811 36.637928 85.910019 1.7146619e-38
25.141705 37.382603 87.656151 1.9166272e-38
29.506609 37.766407 88.556114 1.8898312e-38
33.070141 37.15604 87.124908 1.4104529e-38
37.035725 37.081131 86.949249 1.4935003e-38
41.655869 37.611946 88.193924 1.3367661e-38
45.933716 37.766407 88.556114 1.4564766e-38
50.040489 37.766407 88.556114 1.4197062e-38
54.036308 37.689018 88.374649 1.7333902e-38
57.428581 37.231258 87.30127 1.529766e-38
61.106075 37.006519 86.7743 1.0691841e-38
64.869179 36.858196 86.426506 7.9288382e-39
70.865402 37.922146 88.921295 8.666406e-39
-69.726578 39.906536 84.396927 6.8221277e-39
-65.684143 39.828594 84.232086 8.9426244e-39
-62.14201 40.063343 84.728539 7.651524e-39
-58.212734 40.063343 84.728539 7.7422721e-39
-54.283463 40.063343 84.728539 7.2841918e-39
-50.059143 39.828594 84.232086 1.2631908e-38
-45.618305 39.36726 83.256424 1.4846044e-38
-41.919151 39.519848 83.579124 1.1337197e-38
-37.896297 39.36726 83.256424 1.4471851e-38
-33.709908 38.990902 82.460472 1.4475099e-38
-29.602806 38.62167 81.679596 1.7795249e-38
-25.766129 38.54866 81.525192 1.3827203e-38
-21.820415 38.259365 80.913376 1.410451e-38
-17.351858 36.742775 77.705994 6.5415737e-39
-14.262209 38.116337 80.610893 8.8471903e-39
-10.623173 38.475925 81.371376 9.5876435e-39
-6.9280186 38.916489 82.303108 1.2168406e-38
-3.0876546 38.62167 81.679596 1.198258e-38
0.70022428 38.62167 81.679596 1.456514e-38
4.4966197 38.694954 81.834587 1.576368e-38
8.2916861 38.694954 81.834587 1.2995276e-38
11.752248 37.624062 79.569794 1.5479149e-38
16.033943 39.065594 82.618446 1.2908481e-38
19.751844 38.842365 82.146339 9.5865532e-39
23.833755 39.291409 83.096008 7.7433791e-39
27.902367 39.596584 83.741417 8.9444573e-39
31.480228 39.215847 82.936211 1.2814888e-38
35.878357 39.828594 84.232086 1.0694353e-38
39.32378 39.36726 83.256424 1.2169837e-38
43.690857 39.828594 84.232086 1.8165804e-38
47.228138 39.519848 83.579124 1.6684172e-38
51.104107 39.519848 83.579124 1.8717194e-38
54.87373 39.443405 83.417465 1.6132111e-38
58.068298 38.990902 82.460472 1.4843547e-38
62.732014 39.519848 83.579124 1.4475427e-38
65.466133 38.842365 82.146339 1.1152811e-38
-61.934223 41.238014 79.423256 9.4940059e-39
-58.574596 41.467113 79.864494 8.940465e-39
-54.769466 41.390465 79.716873 8.1103638e-39
-51.072609 41.390465 79.716873 1.2817024e-38
-47.375751 41.390465 79.716873 1.3549898e-38
-43.278904 41.011429 78.986862 1.4293576e-38
-39.615902 41.011429 78.986862 1.6778568e-38
-35.179718 40.129463 77.288223 1.7336063e-38
-31.482647 39.986145 77.012192 2.0098695e-38
-27.961149 40.057674 77.149963 6.3607936e-39
-24.210093 39.773075 76.60183 5.4402792e-39
-20.017696 38.540863 74.228622 8.5684356e-39
-16.865643 39.215832 75.528595 7.0947475e-39
-13.601215 39.914867 76.874916 7.3753099e-39
-10.072061 40.057674 77.149963 1.198149e-38
-6.5175614 40.201511 77.426979 9.0341208e-39
-2.9480679 40.492298 77.98703 1.0417766e-38
0.6673618 40.419209 77.84626 8.8500896e-39
4.2929683 40.565655 78.128311 8.9415552e-39
7.9161568 40.565655 78.128311 8.018873e-39
11.058539 38.87542 74.872963 2.0825411e-38
15.190052 40.639275 78.270103 5.3466445e-39
18.888376 40.787323 78.555244 7.3753127e-39
22.696732 41.086681 79.131798 9.5847568e-39
26.032099 40.565655 78.128311 1.3276538e-38
30.03618 41.086681 79.131798 1.5672189e-38
33.705906 41.086681 79.131798 9.4046927e-39
37.582508 41.314098 79.569794 1.16163e-38
41.120808 41.162209 79.27726 8.2972578e-39
45.296875 41.621265 80.161392 1.549396e-38
48.119926 40.861752 78.698593 1.5768735e-38
52.150219 41.162209 79.27726 1.3829395e-38
54.23164 39.986145 77.012192 1.7423923e-38
58.114395 40.201511 77.426979 1.6414826e-38
63.17963 41.162209 79.27726 1.8162938e-38
-63.062447 43.172108 76.330666 7.0972684e-39
-58.897167 42.71846 75.528595 8.7578688e-39
-56.482647 43.557571 77.012192 8.6645969e-39
-52.535961 43.248653 76.466003 1.235606e-38
-48.644863 42.944088 75.927513 1.420104e-38
-44.965408 42.793404 75.661102 9.6816313e-39
-40.462811 41.767536 73.847305 1.3649308e-38
-37.101685 41.83918 73.973976 1.3825026e-38
-33.613495 41.767536 73.847305 1.5123365e-38
-29.983473 41.483402 73.344948 1.2812344e-38
-26.902378 41.983204 74.228622 1.6688516e-38
-23.339523 41.767536 73.847305 1.4751686e-38
-19.128754 40.118816 70.932281 1.179999e-38
-16.185347 40.995361 72.482063 9.6802034e-39
-13.11045 41.911068 74.101082 1.0968414e-38
-9.7241478 42.128223 74.485023 9.4961667e-39
-6.2591062 42.055588 74.356598 1.7795602e-38
-2.7915781 41.767536 73.847305 8.5749321e-39
0.63634843 41.983204 74.228622 8.9408321e-39
4.071681 41.911068 74.101082 1.1341153e-38
7.5863171 42.347641 74.872963 1.1427939e-38
10.598534 40.58609 71.758446 9.5865757e-39
14.505578 42.274246 74.743202 6.0834949e-39
18.034294 42.421288 75.003181 6.5444702e-39
21.475206 42.347641 74.872963 6.2693168e-39
24.818167 42.128223 74.485023 7.3738553e-39
28.223654 42.055588 74.356598 1.1068837e-38
31.891872 42.347641 74.872963 9.8642303e-39
36.052601 43.172108 76.330666 9.5883623e-39
39.03965 42.569355 75.264969 1.6505198e-38
42.455956 42.495193 75.13385 1.4472945e-38
45.70142 42.274246 74.743202 1.6223213e-38
48.829121 41.983204 74.228622 1.5029377e-38
53.373848 42.868614 75.794075 1.327547e-38
56.59042 42.64378 75.396553 1.6411563e-38
58.056957 41.20311 72.849373 1.659776e-38
-56.807911 44.58149 72.849373 9.6798279e-39
-53.339432 44.50631 72.726524 1.1154969e-38
-49.882629 44.431381 72.604088 1.2168032e-38
-46.594067 44.50631 72.726524 1.2539343e-38
-43.294395 44.58149 72.849373 1.2540451e-38
-38.738167 43.265968 70.699715 1.309109e-38
-35.634731 43.479805 71.049141 1.5212332e-38
-32.446747 43.623539 71.284012 1.3927339e-38
-28.760656 43.054226 70.353714 1.6040623e-38
-25.456486 42.984104 70.239136 1.5120839e-38
-22.127081 42.844547 70.011086 1.318291e-38
-18.229282 41.367149 67.596909 6.0816774e-39
-15.684498 42.984104 70.239136 8.4809302e-39
-12.467781 43.124577 70.468674 7.837381e-39
-9.1400681 42.844547 70.011086 9.2206644e-39
-5.9610538 43.337013 70.815811 8.4813071e-39
-2.6858017 43.479805 71.049141 1.3826127e-38
0.60808951 43.408291 70.932281 1.0229057e-38
3.8720889 43.124577 70.468674 1.3181834e-38
7.1634731 43.265968 70.699715 1.0597844e-38
10.27374 42.56813 69.559402 1.2347363e-38
13.788663 43.479805 71.049141 7.4674971e-39
17.168407 43.695763 71.402031 8.204709e-39
20.479668 43.695763 71.402031 7.6544317e-39
23.989513 44.060501 71.998047 1.02341e-38
27.419964 44.208107 72.239243 1.4565137e-38
30.667311 44.060501 71.998047 1.1064577e-38
34.46653 44.656921 72.972633 7.7430134e-39
37.786686 44.58149 72.849373 1.207838e-38
40.88879 44.282284 72.360451 9.8595346e-39
44.393467 44.431381 72.604088 1.7424662e-38
46.660721 43.408291 70.932281 1.7147696e-38
50.700699 44.060501 71.998047 1.9732397e-38
52.209225 42.56813 69.559402 1.5858772e-38
56.343803 43.265968 70.699715 1.5395984e-38
-53.894684 45.500385 69.11351 1.078799e-38
-49.49966 44.432301 67.491127 1.3732492e-38
-48.25779 46.241436 70.239136 1.2813784e-38
-43.85759 45.067051 68.455284 1.6501609e-38
-40.682987 45.067051 68.455284 1.4010873e-38
-37.096203 44.571808 67.703026 1.2632985e-38
-34.333782 45.067051 68.455284 1.3919734e-38
-30.816769 44.571808 67.703026 1.1247212e-38
-27.249277 43.882908 66.656609 1.3186186e-38
-24.195482 43.950836 66.759796 1.6413707e-38
-20.313385 42.313324 64.272469 8.2932991e-39
-17.975706 43.882908 66.656609 6.6337694e-39
-15.023841 44.293667 67.28054 1.3458063e-38
-11.922316 44.362877 67.385666 1.5116141e-38
-8.9086733 44.924431 68.238655 1.3735358e-38
-5.6723151 44.362877 67.385666 1.4655891e-38
-2.5553002 44.501945 67.596909 1.0415962e-38
0.58499753 44.924431 68.238655 8.202551e-39
3.7318401 44.712189 67.916267 9.1270296e-39
6.9470882 45.138699 68.564117 1.0233732e-38
9.9526854 44.362877 67.385666 1.6858103e-38
13.077685 44.362877 67.385666 5.2537342e-39
16.228043 44.432301 67.491127 8.3898191e-39
19.449244 44.641888 67.809479 6.6391896e-39
22.845341 45.138699 68.564117 9.7745655e-39
25.577686 44.362877 67.385666 1.3824338e-38
28.883205 44.641888 67.809479 2.0097239e-38
31.977581 44.571808 67.703026 1.3276188e-38
35.227905 44.712189 67.916267 7.467144e-39
38.620792 44.995628 68.346794 1.2906346e-38
41.461823 44.641888 67.809479 1.4748827e-38
44.327686 44.362877 67.385666 1.4753498e-38
47.60144 44.501945 67.596909 1.595348e-38
50.815887 44.571808 67.703026 1.4940775e-38
54.728851 45.210575 68.673294 1.9178172e-38
-56.917385 48.549908 68.8927 9.7723962e-39
-51.818615 46.829338 66.451202 1.1618844e-38
-48.661972 46.757294 66.348969 1.2446421e-38
-46.297318 47.487877 67.385666 1.134152e-38
-41.424709 45.565578 64.657913 1.4014135e-38
-39.070553 46.329636 65.742119 1.3182933e-38
-35.966946 46.259117 65.642052 1.3096873e-38
-33.023331 46.400368 65.842484 1.0050431e-38
-29.697855 45.979183 65.24482 9.6816706e-39
-26.196556 45.159348 64.081467 1.3827905e-38
-23.121719 44.958935 63.797081 8.8511658e-39
-19.416355 43.293789 61.434227 1.041814e-38
-17.204559 44.958935 63.797081 5.7128949e-39
-14.395041 45.429359 64.464615 1.1982936e-38
-11.422578 45.497368 64.561119 1.2166609e-38
-8.3908815 45.293949 64.272469 1.4011611e-38
-5.402205 45.226551 64.176826 1.5026845e-38
-2.4442003 45.565578 64.657913 1.4655163e-38
0.55099618 45.293949 64.272469 1.2352798e-38
3.5263667 45.226551 64.176826 1.3274754e-38
6.5908275 45.840485 65.048004 1.2626129e-38
9.5070429 45.361553 64.368401 1.4090436e-38
12.236431 44.433102 63.050919 6.1753163e-39
15.735537 46.118729 65.442833 1.53949e-38
18.885067 46.400368 65.842484 1.640797e-38
21.772301 46.048851 65.343681 1.2440313e-38
24.616119 45.702618 64.852371 1.2905971e-38
27.959999 46.259117 65.642052 1.2076208e-38
30.95702 46.188816 65.54229 7.0979985e-39
34.152241 46.400368 65.842484 6.4533452e-39
37.491875 46.757294 66.348969 7.9284893e-39
40.38242 46.542484 66.044144 1.355242e-38
42.919392 45.979183 65.24482 1.2632608e-38
46.295303 46.329636 65.742119 2.1574868e-38
49.419418 46.400368 65.842484 2.1393364e-38
53.12167 46.974098 66.656609 1.6684546e-38
-49.822639 47.988506 63.891598 1.3184374e-38
-46.721245 47.846737 63.702847 1.5023946e-38
-43.319126 47.357079 63.050919 1.2722659e-38
-40.277378 47.219009 62.867096 1.263045e-38
-37.41647 47.287945 62.958874 1.3372719e-38
-34.34634 47.081745 62.684341 1.1986173e-38
-31.393734 47.013412 62.593365 1.6778554e-38
-28.204428 46.540577 61.963833 1.3367675e-38
-25.403864 46.674698 62.142403 1.1802128e-38
-22.13921 45.881363 61.086159 1.2258077e-38
-18.983679 45.11454 60.06522 6.9103506e-39
-16.758331 46.674698 62.142403 1.24439e-38
-13.95693 46.945278 62.502647 1.5310625e-38
-11.042376 46.877338 62.412197 9.9585728e-39
-8.1835489 47.081745 62.684341 9.494729e-39
-5.2765722 47.081745 62.684341 1.4474012e-38
-2.3661561 47.013412 62.593365 1.2627238e-38
0.53738147 47.081745 62.684341 1.1156037e-38
3.4343746 46.945278 62.502647 1.3093974e-38
6.2964244 46.674698 62.142403 1.9538258e-38
9.1782684 46.674698 62.142403 1.8980757e-38
11.871942 45.946442 61.172806 7.463893e-39
15.072266 47.081745 62.684341 1.0695797e-38
18.03166 47.219009 62.867096 7.4671454e-39
21.320057 48.059704 63.986393 8.8508309e-39
23.827829 47.15028 62.775585 9.4961611e-39
26.700172 47.081745 62.684341 1.0323436e-38
29.736816 47.287945 62.958874 1.2445359e-38
32.419884 46.945278 62.502647 7.1902054e-39
36.264462 48.20274 64.176826 7.466781e-39
39.06625 47.988506 63.891598 8.760066e-39
41.905052 47.846737 63.702847 1.5030071e-38
44.859261 47.846737 63.702847 1.7243168e-38
48.169224 48.20274 64.176826 1.1158231e-38
51.298088 48.34663 64.368401 1.7155605e-38
-48.598675 49.699772 62.322006 9.6834516e-39
-45.7085 49.699772 62.322006 1.2998894e-38
-42.208378 48.991798 61.434227 1.198548e-38
-40.336178 50.207653 62.958874 1.3831891e-38
-36.825119 49.414139 61.963833 1.1984381e-38
-33.902843 49.343243 61.874931 1.401416e-38
-30.294512 48.168404 60.401718 1.3000691e-38
-27.340225 47.900059 60.06522 1.2631203e-38
-24.93675 48.645321 60.999756 1.2446795e-38
-21.830002 48.033855 60.233002 9.4028893e-39
-19.036707 48.033855 60.233002 6.08059e-39
-16.496853 48.783321 61.172806 1.0694693e-38
-13.679378 48.852615 61.259697 7.4693244e-39
-10.900402 49.131775 61.609753 5.4392044e-39
-8.0089359 48.922108 61.34684 9.4050613e-39
-5.1787186 49.061684 61.521866 9.1259478e-39
-2.3289738 49.131775 61.609753 1.4568385e-38
0.52591527 48.922108 61.34684 1.3923737e-38
3.3756673 48.991798 61.434227 1.539633e-38
6.2246704 48.991798 61.434227 2.073936e-38
9.0095034 48.645321 60.999756 1.345589e-38
11.7059 48.101036 60.317242 7.9255844e-39
14.771679 48.991798 61.434227 9.2213721e-39
17.620682 48.991798 61.434227 7.561534e-39
20.947111 50.13446 62.867096 5.348448e-39
24.00252 50.428505 63.235817 6.1774926e-39
26.700172 49.988724 62.684341 8.7582499e-39
29.607149 49.988724 62.684341 9.680558e-39
32.233025 49.556545 62.142403 1.1246446e-38
35.680408 50.354671 63.143234 7.0058001e-39
38.95084 50.800945 63.702847 8.0217569e-39
41.175209 49.916168 62.593365 1.4474728e-38
44.206287 50.061485 62.775585 1.6046032e-38
47.255066 50.207653 62.958874 1.7978537e-38
51.145416 51.178932 64.176826 1.2168783e-38
