# .PCD v0.7 - Point Cloud Data file format
VERSION 0.7
FIELDS x y z rgb
SIZE 4 4 4 4
TYPE F F F F
COUNT 1 1 1 1
WIDTH 1012
HEIGHT 1
VIEWPOINT 0 0 0 1 0 0 0
POINTS 1012
DATA ascii
-170.27277 -152.07132 195.14401 2.3418047e-38
-150.97577 -142.40576 182.7408 2.3509879e-38
-139.54474 -139.45129 178.94949 2.3509883e-38
-133.46111 -141.8049 181.96974 2.3509886e-38
-140.42787 -159.27849 204.39255 2.3509886e-38
-132.83789 -161.57578 207.34052 2.3509886e-38
-129.44586 -169.73616 217.81226 2.3509886e-38
-121.18093 -172.34749 221.16322 2.3509886e-38
-116.29184 -180.68689 231.86467 2.3509886e-38
-119.69684 -204.92537 262.96848 2.3509886e-38
-102.50164 -195.39395 250.73737 2.3509886e-38
-84.033775 -180.68689 231.86467 2.3509886e-38
-84.137543 -207.45531 266.215 2.3509886e-38
-73.146423 -211.36957 271.23792 2.3509886e-38
-66.876953 -233.38722 299.49185 2.3509886e-38
-38.829529 -231.77766 297.42639 2.3509886e-38
-29.042253 -268.86209 345.01462 2.3509886e-38
-13.362964 -275.47345 353.4986 2.3509886e-38
-156.79285 -131.69901 179.69511 1.0697604e-38
-155.59076 -138.02516 188.32677 1.2450062e-38
-140.12617 -131.69901 179.69511 2.0197705e-38
-130.16577 -130.07309 177.47665 2.3509886e-38
-132.27805 -141.10608 192.53049 2.341805e-38
-130.33151 -149.09322 203.42844 2.3509886e-38
-120.32996 -148.39323 202.47337 2.3509886e-38
-113.60712 -151.96039 207.34052 2.3509886e-38
-108.15141 -158.0388 215.63414 2.3509886e-38
-104.4164 -168.12639 229.39803 2.3509886e-38
-97.404869 -174.62851 238.26976 2.3509886e-38
-86.355148 -174.62851 238.26976 2.3509886e-38
-79.245827 -183.76605 250.73737 2.3509886e-38
-70.486557 -191.56218 261.37473 2.3509886e-38
-66.876953 -219.49834 299.49185 2.3509886e-38
-49.871124 -206.58667 281.87469 2.3509886e-38
-42.979248 -241.28061 329.21243 2.3509886e-38
-28.584894 -248.88 339.58133 2.3509886e-38
-13.815946 -267.86237 365.4816 2.3509886e-38
-148.7363 -117.02672 170.46178 7.6522485e-39
-142.52113 -118.43104 172.50731 8.1132266e-39
-141.30371 -124.40235 181.20515 7.5600529e-39
-131.24599 -122.85378 178.94949 8.0206667e-39
-132.27805 -132.17751 192.53049 1.0418859e-38
-131.57277 -140.98933 205.36584 1.2356776e-38
-123.22251 -142.345 207.34052 2.3050708e-38
-115.26967 -144.4281 210.37477 2.3509886e-38
-112.074 -153.40808 223.45506 2.3509886e-38
-104.4164 -157.48808 229.39803 2.3509886e-38
-98.493195 -165.40648 240.93201 2.3509886e-38
-87.81057 -166.33574 242.28555 2.3509886e-38
-81.618454 -177.29198 258.24448 2.3509886e-38
-72.237778 -183.89914 267.8685 2.3509886e-38
-62.534298 -192.25818 280.04434 2.3509886e-38
-51.209946 -198.70979 289.4418 2.3509886e-38
-37.787125 -198.70979 289.4418 2.3509886e-38
-29.756407 -242.68655 353.4986 2.3509886e-38
-14.427271 -262.01556 381.65335 2.3509886e-38
-156.79285 -115.03233 179.69511 7.0983502e-39
-170.47981 -132.09454 206.34846 6.9136016e-39
-160.1442 -131.46553 205.36584 6.7295677e-39
-152.06866 -132.72961 207.34052 6.6373693e-39
-137.81526 -128.40819 200.5899 6.9136016e-39
-132.2023 -132.09454 206.34846 7.6518842e-39
-123.22251 -132.72961 207.34052 9.1270156e-39
-118.15141 -138.0388 215.63414 7.8344846e-39
-112.074 -143.04539 223.45506 1.511903e-38
-104.97477 -147.63509 230.62476 1.3278354e-38
-101.32346 -158.66528 247.85533 2.2775202e-38
-88.306679 -155.97604 243.65439 2.3509886e-38
-82.607765 -167.31976 261.37473 2.3509886e-38
-72.689262 -172.54851 269.54266 2.3509886e-38
-66.415733 -190.39835 297.42639 2.3509886e-38
-48.292923 -174.73267 272.95462 2.3509886e-38
-41.705791 -204.50192 319.45798 2.3509886e-38
-28.361576 -215.68562 336.92834 2.3509886e-38
-14.956712 -253.28221 395.65897 2.3509886e-38
-156.79285 -106.699 179.69511 7.3742113e-39
-147.84349 -106.25626 178.94949 7.3734924e-39
-158.63341 -120.79132 203.42844 6.9128772e-39
-148.49898 -120.22423 202.47337 6.7284887e-39
-139.1093 -120.22423 202.47337 6.5451765e-39
-132.83789 -123.11423 207.34052 6.91288e-39
-130.76674 -130.65184 220.03484 6.8206843e-39
-123.07439 -133.37375 224.6189 6.5451765e-39
-119.50432 -141.47934 238.26976 6.6362945e-39
-107.8587 -140.70198 236.96059 6.6377322e-39
-100.17206 -145.49864 245.03879 7.0061546e-39
-90.873734 -148.88232 250.73737 7.282387e-39
-80.178131 -150.63388 253.68723 1.2539344e-38
-73.609375 -162.07443 272.95462 1.5211944e-38
-62.94302 -167.37099 281.87469 2.3234018e-38
-54.115475 -181.61533 305.86401 2.3509883e-38
-38.829529 -176.60524 297.42639 2.3509886e-38
-28.584894 -201.63591 339.58133 2.3509886e-38
-13.934031 -218.86975 368.60538 2.3509886e-38
3.1599865 -218.86975 368.60538 2.3509886e-38
20.970961 -226.61734 381.65335 2.3509886e-38
-206.40771 -122.95708 224.6189 6.2675078e-39
-168.06737 -111.35736 203.42844 5.8987252e-39
-158.63341 -111.35736 203.42844 5.8987252e-39
-155.0504 -115.72431 211.40602 5.8990812e-39
-139.1093 -110.83456 202.47337 6.7281202e-39
-143.90771 -122.95708 224.6189 7.0969027e-39
-137.79721 -126.92344 231.86467 7.280215e-39
-135.03018 -134.90149 246.43901 7.5568018e-39
-123.60161 -134.90149 246.43901 6.6362903e-39
-115.47224 -138.86917 253.68723 6.5440947e-39
-105.57055 -141.36383 258.24448 6.6362903e-39
-98.925835 -149.4162 272.95462 6.2675106e-39
-91.478401 -158.44135 289.4418 5.9909237e-39
-75.521309 -153.29715 280.04434 5.6228628e-39
-67.818886 -166.25183 303.71005 5.8076226e-39
-52.988068 -163.94278 299.49185 6.5448191e-39
-41.096947 -172.31941 314.79437 6.7266923e-39
-29.276464 -190.38516 347.797 1.4476897e-38
-12.736575 -184.43562 336.92834 2.3142544e-38
3.243144 -207.08562 378.30551 2.3509886e-38
20.428608 -203.51517 371.78299 2.3509886e-38
39.724712 -214.616 392.06207 2.3509886e-38
-161.22299 -97.772667 195.14401 6.6359245e-39
-159.38522 -102.40645 204.39255 6.3593377e-39
-152.06866 -103.88346 207.34052 5.8983623e-39
-163.70322 -119.37989 238.26976 5.8068855e-39
-156.10329 -122.07774 243.65439 6.0827508e-39
-149.88469 -126.36117 252.20367 5.9894789e-39
-138.18878 -126.36117 252.20367 5.8061667e-39
-125.75745 -125.62651 250.73737 5.5295826e-39
-120.43118 -132.56294 264.58176 5.2544376e-39
-115.9887 -142.15631 283.72913 5.4377499e-39
-109.30267 -151.10321 301.58621 5.9912768e-39
-94.001945 -149.01903 297.42639 6.6359245e-39
-96.919014 -180.06467 359.39023 7.0958265e-39
-68.787727 -154.34114 308.04877 6.3593405e-39
-61.534531 -174.25613 347.797 6.2667917e-39
-42.017029 -161.25194 321.84201 5.714334e-39
-29.276464 -174.25613 347.797 5.4377499e-39
-13.934031 -184.68172 368.60538 5.2529957e-39
3.1332071 -183.11661 365.4816 6.9135792e-39
21.542894 -196.43419 392.06207 5.4384716e-39
58.978874 -200.07185 399.32248 2.0937416e-38
-192.38 -95.183304 209.35353 7.8326615e-39
-167.27832 -92.055214 202.47337 7.0961782e-39
-160.1442 -93.370285 205.36584 6.6362805e-39
-163.88747 -101.59461 223.45506 6.267142e-39
-167.40273 -110.77831 243.65439 5.8061639e-39
-159.71262 -113.33965 249.28802 5.7139682e-39
-157.241 -120.29301 264.58176 6.8188739e-39
-144.08708 -119.55951 262.96848 6.7266768e-39
-148.15262 -134.29973 295.38922 5.8054408e-39
-166.35832 -166.16747 365.4816 9.7630342e-39
-153.30679 -170.50226 375.0159 6.4493893e-39
-142.09348 -178.25237 392.06207 5.3459018e-39
-102.02002 -171.99789 378.30551 6.2660658e-39
-82.310104 -167.58769 368.60538 5.8076086e-39
-65.21608 -167.58769 368.60538 5.437031e-39
-45.405499 -158.12709 347.797 4.9767689e-39
-28.81176 -155.61714 342.2764 8.6645969e-39
-13.815946 -166.16747 365.4816 5.5285008e-39
3.3307967 -176.64648 388.52997 5.8061667e-39
-167.2457 -78.256714 191.67479 6.7273971e-39
-169.66801 -83.846474 205.36584 7.2805709e-39
-163.2538 -85.474564 209.35353 6.8195927e-39
-163.04269 -90.76165 222.30324 6.6362805e-39
-164.61269 -97.820892 239.59349 5.8976364e-39
-158.79472 -101.19402 247.85533 5.6217726e-39
-156.28221 -107.36439 262.96848 6.9110681e-39
-156.49193 -116.60768 285.60812 6.8188725e-39
-154.50201 -125.76971 308.04877 6.8188725e-39
-157.04225 -140.86208 345.01462 6.2656987e-39
-46.531254 -145.51868 356.42007 2.3509886e-38
-28.361576 -137.56062 336.92834 9.1237772e-39
-14.054152 -151.79103 371.78299 9.7662516e-39
-186.05766 -73.275871 202.47337 7.1876564e-39
-163.60992 -67.859825 187.50795 6.8188767e-39
-167.27832 -73.275871 202.47337 7.0958153e-39
-162.46513 -75.399803 208.34216 6.5422856e-39
-162.20657 -80.039795 221.16322 6.7284747e-39
-163.70322 -86.230721 238.26976 6.45009e-39
-156.99023 -88.680458 245.03879 5.9894761e-39
-158.21162 -96.3442 266.215 7.4645978e-39
-152.45343 -100.69523 278.23761 7.6482702e-39
-159.04619 -114.76294 317.10904 7.2802065e-39
-155.79588 -123.87111 342.2764 5.8987154e-39
-154.6516 -136.91017 378.30551 6.4508102e-39
-30.506569 -131.15765 362.41031 5.0693149e-39
-165.0451 -59.683159 189.15276 6.7273957e-39
-165.72224 -63.291908 200.5899 6.542287e-39
-163.2538 -66.057083 209.35353 5.9898321e-39
-164.74106 -70.873749 224.6189 6.6352015e-39
-166.46227 -76.44809 242.28555 6.4504543e-39
-157.88733 -77.758629 246.43901 5.8065198e-39
-158.21162 -83.99852 266.215 6.1753023e-39
-160.75021 -92.569794 293.37979 5.9905551e-39
-157.88527 -99.326714 314.79437 5.8983595e-39
-153.36157 -106.31062 336.92834 5.7139682e-39
-156.02019 -120.42265 381.65335 6.4508102e-39
-28.361576 -106.31062 336.92834 8.2025006e-39
-12.836864 -107.14771 339.58133 4.8849292e-39
-168.74567 -52.052734 193.39384 6.0820277e-39
-166.49664 -54.241867 201.52724 5.529577e-39
-159.38522 -55.013081 204.39255 6.0820277e-39
-164.74106 -60.457081 224.6189 5.2529929e-39
-168.35388 -65.953178 245.03879 5.7146899e-39
-159.71262 -67.096878 249.28802 5.8065198e-39
-157.241 -71.213249 264.58176 5.8054408e-39
-157.53522 -77.385063 287.51218 5.0693205e-39
-156.74118 -84.114204 312.51324 5.4373814e-39
-152.17273 -89.982635 334.3165 5.7139682e-39
-146.91902 -96.731331 359.39023 6.0816718e-39
-29.756407 -95.145569 353.4986 1.5481617e-38
-165.77217 -42.324932 189.98602 4.7927308e-39
-168.86389 -45.534409 204.39255 5.3441067e-39
-161.68405 -46.191154 207.34052 6.1742219e-39
-163.04269 -49.524536 222.30324 5.4363024e-39
-164.61269 -53.376442 239.59349 4.8860054e-39
-156.99023 -54.589546 245.03879 5.528498e-39
-158.21162 -59.307159 266.215 5.1600714e-39
-158.5925 -64.481613 289.4418 5.1615161e-39
-155.61354 -69.120575 310.26495 5.5288539e-39
-153.36157 -75.060623 336.92834 5.8972805e-39
-149.40916 -81.421692 365.4816 6.3582587e-39
-29.756407 -78.752129 353.4986 1.0229374e-38
-14.687222 -86.556396 388.52997 9.1216066e-39
-162.19949 -32.792068 185.89149 4.9771249e-39
-171.29944 -36.575768 207.34052 5.7128892e-39
-165.66641 -37.47665 212.44743 5.435938e-39
-168.24619 -40.466808 229.39803 5.7132438e-39
-165.5323 -42.50145 240.93201 5.7139682e-39
-157.88733 -43.472912 246.43901 5.8054408e-39
-159.19431 -47.253166 267.8685 5.0675198e-39
-157.53522 -50.718399 287.51218 6.0827508e-39
-152.32593 -53.575771 303.71005 6.5422856e-39
-149.84949 -58.074501 329.21243 7.0961796e-39
-144.51051 -62.358688 353.4986 5.991274e-39
-135.9155 -66.154434 375.0159 5.4391792e-39
-30.765099 -64.472542 365.4816 7.464595e-39
-14.176362 -66.154434 375.0159 9.6754951e-39
168.52953 -69.795959 395.65897 9.1305791e-39
181.8725 -67.92643 385.06097 9.7755856e-39
201.52899 -68.538376 388.52997 1.051387e-38
208.28819 -65.02359 368.60538 1.0698984e-38
219.74767 -63.397999 359.39023 1.0330201e-38
223.38362 -59.903622 339.58133 1.0329125e-38
242.95775 -60.86208 345.01462 1.199118e-38
258.95776 -60.86208 345.01462 1.5126571e-38
284.04727 -62.874046 356.42007 1.6967963e-38
-160.81317 -23.964785 184.30269 5.0678744e-39
-161.22299 -25.374479 195.14401 5.5288539e-39
-163.2538 -27.222136 209.35353 4.8842076e-39
-161.379 -28.611019 220.03484 6.1735031e-39
-165.5323 -31.328266 240.93201 6.7273971e-39
-157.88733 -32.044342 246.43901 5.7143242e-39
-148.15192 -32.414795 249.28802 5.6217726e-39
-155.46239 -36.893158 283.72913 7.0976244e-39
-159.04619 -41.233528 317.10904 5.3459074e-39
-140.21629 -40.055428 308.04877 4.7019743e-39
-133.56274 -42.483028 326.71838 4.7030477e-39
-120.23294 -43.136612 331.74484 4.9796318e-39
-102.48332 -42.163609 324.26187 5.3491374e-39
-88.780777 -42.807327 329.21243 5.2558642e-39
-78.294975 -45.591541 350.6246 4.7945259e-39
-62.034809 -45.591541 350.6246 6.1738702e-39
-45.042255 -44.86208 345.01462 5.8987281e-39
-29.042253 -44.86208 345.01462 6.083841e-39
-13.362964 -45.965244 353.4986 7.5578865e-39
3.030479 -45.965244 353.4986 5.437387e-39
20.082359 -47.523388 365.4816 1.2629009e-38
35.239666 -45.223869 347.797 9.5847554e-39
51.368698 -45.223869 347.797 1.5577111e-38
69.747658 -46.731331 359.39023 1.2262757e-38
88.630074 -47.929569 368.60538 9.4965394e-39
108.5063 -49.190876 378.30551 1.1248968e-38
120.75394 -47.124031 362.41031 1.37368e-38
132.01385 -45.223869 347.797 1.0786906e-38
144.64345 -44.15559 339.58133 9.9549448e-39
159.13843 -43.810623 336.92834 8.7618022e-39
169.46758 -42.483028 326.71838 1.0236918e-38
169.23416 -38.942776 299.49185 9.1309351e-39
181.86014 -38.674206 297.42639 9.4993617e-39
180.69885 -35.718216 274.69318 9.7770303e-39
202.4648 -37.385063 287.51218 9.7777436e-39
196.18011 -33.986423 261.37473 1.4666975e-38
227.61403 -37.137482 285.60812 1.5951957e-38
-160.81317 -15.417776 184.30269 5.5288539e-39
-161.22299 -16.324705 195.14401 5.7125249e-39
-158.63341 -17.017735 203.42844 5.0685988e-39
-160.55981 -18.313501 218.91791 6.1742233e-39
-164.61269 -20.04311 239.59349 7.0961782e-39
-156.10329 -20.382824 243.65439 6.173873e-39
-148.15192 -20.854103 249.28802 5.0686016e-39
-135.03018 -20.61577 246.43901 4.7026932e-39
-127.23695 -21.222116 253.68723 4.794886e-39
-118.25471 -21.733492 259.80017 4.7948888e-39
-115.9887 -23.735262 283.72913 5.8108344e-39
-103.5118 -23.892448 285.60812 5.7171968e-39
-87.937302 -23.275869 278.23761 5.8093953e-39
-77.021736 -23.892448 285.60812 6.2660658e-39
-66.415733 -24.881102 297.42639 6.5451709e-39
-53.734379 -25.406759 303.71005 7.3745798e-39
-40.216297 -25.769712 308.04877 7.4667754e-39
-25.386585 -25.229088 301.58621 6.7292104e-39
-11.562281 -25.586948 305.86401 7.9270333e-39
2.5854435 -25.229088 301.58621 1.1246446e-38
16.456379 -25.053886 299.49185 1.1981482e-38
30.345268 -25.053886 299.49185 1.0047533e-38
44.543488 -25.229088 301.58621 1.2814139e-38
57.722198 -24.881102 297.42639 1.0417771e-38
72.515518 -25.229088 301.58621 1.2999601e-38
85.900826 -25.053886 299.49185 7.3756644e-39
100.48754 -25.229088 301.58621 1.4199234e-38
111.35863 -24.542583 293.37979 1.2074388e-38
125.81999 -24.710682 295.38922 1.5491426e-38
137.63324 -24.376755 291.39749 1.3920839e-38
142.48228 -22.979361 274.69318 7.5607549e-39
150.43036 -22.270121 266.215 9.5912084e-39
155.116 -21.222116 253.68723 8.6724863e-39
167.86816 -21.347691 255.18832 8.7628784e-39
174.53862 -20.734251 247.85533 1.0421672e-38
178.83823 -19.932373 238.26976 8.3962539e-39
181.85037 -19.088676 228.18428 1.3919699e-38
-157.44888 -6.7270279 180.44698 4.8827642e-39
-159.06377 -7.1774983 192.53049 5.1611504e-39
-150.13519 -7.1774983 192.53049 4.9767591e-39
-144.43051 -7.3413682 196.92615 5.0703967e-39
-139.1093 -7.5481672 202.47337 5.5328084e-39
-147.75552 -8.5976448 230.62476 5.6221384e-39
-144.80385 -9.0833874 243.65439 5.1622364e-39
-130.55405 -8.8826504 238.26976 3.8725696e-39
-120.83956 -8.9818974 240.93201 4.8885152e-39
-111.53569 -9.1349983 245.03879 5.7193464e-39
-100.17206 -9.1349983 245.03879 5.0732694e-39
-95.891296 -9.8635559 264.58176 5.6235677e-39
-81.618454 -9.6273031 258.24448 6.91288e-39
-67.227066 -9.2934084 249.28802 7.2827415e-39
-59.446182 -9.9244423 266.215 7.0979929e-39
-47.100506 -9.9244423 266.215 7.3738581e-39
-35.189262 -10.048498 269.54266 6.6359274e-39
-23.122812 -10.240507 274.69318 9.0341011e-39
-10.253344 -10.111696 271.23792 8.5724013e-39
2.2007051 -9.5699978 256.70731 1.4013398e-38
14.105467 -9.5699978 256.70731 1.4381097e-38
25.258488 -9.2934084 249.28802 9.95497e-39
37.033249 -9.3474398 250.73737 9.5847568e-39
48.661156 -9.3474398 250.73737 8.0203065e-39
60.641628 -9.4021034 252.20367 1.2537905e-38
72.33754 -9.4021034 252.20367 1.4566207e-38
86.046219 -9.6273031 258.24448 1.3554233e-38
95.172783 -9.3474398 250.73737 1.4659495e-38
109.99831 -9.6273031 258.24448 1.5767281e-38
119.82188 -9.4574099 253.68723 1.7332429e-38
124.9705 -8.9818974 240.93201 1.4749895e-38
136.14368 -8.9818974 240.93201 1.0138282e-38
144.88857 -8.8338442 236.96059 9.5887084e-39
152.52538 -8.6438694 231.86467 1.0420264e-38
157.35606 -8.3303604 223.45506 9.4961471e-39
159.45674 -7.9199982 212.44743 8.6685304e-39
166.03729 -7.7669549 208.34216 1.0141857e-38
-158.77756 1.6550229 181.96974 5.0678758e-39
-156.27316 1.7203526 189.15276 4.0551658e-39
-146.21861 1.7053931 187.50795 4.7026932e-39
-140.57903 1.7432907 191.67479 4.6104976e-39
-131.69014 1.7432907 191.67479 3.782176e-39
-125.0239 1.7748435 195.14401 4.7963195e-39
-109.06503 1.6691082 183.51842 5.9026643e-39
-108.89531 1.8075595 198.74115 5.2580138e-39
-106.03079 1.9227471 211.40602 4.8874362e-39
-100.1545 2.0012267 220.03484 4.6115724e-39
-90.877739 2.0218577 222.30324 5.5295826e-39
-80.155289 2.0114892 221.16322 6.1763911e-39
-70.991051 2.0429187 224.6189 6.3597062e-39
-59.642471 2.0114892 221.16322 7.0972726e-39
-49.640629 2.0218577 222.30324 8.4809302e-39
-39.94912 2.0536146 225.79491 8.941181e-39
-30.270332 2.1088195 231.86467 8.1114246e-39
-20.168232 2.1791134 239.59349 9.8624227e-39
-8.6258287 2.075346 228.18428 1.4014843e-38
1.9256169 2.0429187 224.6189 1.3643537e-38
11.848593 1.961202 215.63414 1.3829361e-38
21.739893 1.9514449 214.56134 9.2195742e-39
33.524834 2.0644231 226.98331 1.180035e-38
43.592285 2.0429187 224.6189 1.2353149e-38
52.906727 2.0012267 220.03484 9.4036053e-39
63.761436 2.0218577 222.30324 1.3461312e-38
75.630096 2.0644231 226.98331 1.2722659e-38
83.518974 2.0012267 220.03484 1.797781e-38
93.723053 2.0012267 220.03484 1.3274401e-38
103.39959 1.991068 218.91791 1.3461652e-38
110.19566 1.9322188 212.44743 1.7791261e-38
123.07939 1.9810121 217.81226 1.2912081e-38
129.9001 1.9322188 212.44743 1.5577476e-38
137.05179 1.8948811 208.34216 8.7582317e-39
144.61771 1.8678114 205.36584 9.4968631e-39
151.26038 1.8328991 201.52724 9.3131795e-39
154.81856 1.7668487 194.26498 1.12475e-38
-154.85713 9.8446112 177.47665 4.239557e-39
-151.61823 10.179747 183.51842 3.5974246e-39
-136.70847 9.724555 175.3123 4.9796346e-39
-140.57903 10.63218 191.67479 3.9662029e-39
-128.26962 10.356019 186.69623 4.8874362e-39
-117.07747 10.136612 182.7408 4.703768e-39
-109.06503 10.179747 183.51842 5.3502122e-39
-105.02348 10.63218 191.67479 4.8899571e-39
-96.13459 10.63218 191.67479 6.4526039e-39
-88.42469 10.775858 194.26498 7.0050756e-39
-79.775032 10.824617 195.14401 6.6370148e-39
-73.727745 11.284153 203.42844 6.0838438e-39
-65.21666 11.446127 206.34846 7.6511695e-39
-55.11982 11.337632 204.39255 8.2969046e-39
-46.299431 11.501156 207.34052 9.7723878e-39
-36.334675 11.391622 205.36584 1.0785098e-38
-26.939146 11.446127 206.34846 9.1252122e-39
-17.453278 11.501156 207.34052 1.0787277e-38
-7.8378925 11.501156 207.34052 1.4472567e-38
1.75222 11.337632 204.39255 1.4750261e-38
11.125439 11.231175 202.47337 1.5024288e-38
20.230179 11.075188 199.66124 1.4471851e-38
28.953266 10.87382 196.03104 1.7328474e-38
37.872028 10.824617 195.14401 2.1475482e-38
47.567516 10.97358 197.82948 1.0045734e-38
57.802425 11.178694 201.52724 9.5876449e-39
67.148216 11.178694 201.52724 1.1337197e-38
77.951042 11.391622 205.36584 1.5214122e-38
85.044998 11.075188 199.66124 1.4846054e-38
89.340874 10.492283 189.15276 1.1987964e-38
98.981056 10.585135 190.82668 1.2904151e-38
103.70094 10.179747 183.51842 1.4381813e-38
114.15462 10.356019 186.69623 1.4937535e-38
121.75845 10.267126 185.09369 1.3093224e-38
131.47064 10.356019 186.69623 9.2159588e-39
135.43816 10.009375 180.44698 9.9567609e-39
128.72554 8.9597025 161.5237 1.0141156e-38
-129.56467 15.971784 156.82483 4.6115724e-39
-125.01964 16.328032 160.32278 5.5321007e-39
-122.59799 17.024187 167.15825 4.242794e-39
-111.39204 16.512182 162.13094 4.6104863e-39
-104.26521 16.574492 162.74275 5.44061e-39
-93.541176 16.030075 157.39719 5.717194e-39
-96.845421 18.000986 176.7493 5.8076086e-39
-89.752205 18.225065 178.94949 6.3604279e-39
-82.480179 18.454792 181.20515 6.1753149e-39
-73.459511 18.301003 179.69511 7.8355636e-39
-65.126175 18.301003 179.69511 9.4032522e-39
-57.030468 18.377575 180.44698 7.282387e-39
-49.280857 18.611189 182.7408 7.5589711e-39
-39.794552 18.149754 178.21004 1.0138654e-38
-32.331703 18.611189 182.7408 9.4940087e-39
-25.023474 19.521069 191.67479 1.1152437e-38
-15.448007 18.690386 183.51842 1.4474379e-38
-6.8212619 18.377575 180.44698 1.0232628e-38
1.5277622 18.149754 178.21004 1.8529549e-38
9.4411097 17.498966 171.82004 9.5833022e-39
18.207161 18.301003 179.69511 1.3460249e-38
26.651543 18.377575 180.44698 1.7239174e-38
34.585613 18.149754 178.21004 1.6314689e-38
41.645458 17.639521 173.20012 1.0785098e-38
52.192905 18.53266 181.96974 1.355169e-38
59.379002 18.149754 178.21004 1.3554202e-38
67.643463 18.149754 178.21004 1.5119018e-38
72.895706 17.429525 171.1382 1.5765115e-38
80.512726 17.360634 170.46178 1.3186888e-38
88.768723 17.429525 171.1382 1.6228276e-38
97.090515 17.498966 171.82004 1.087694e-38
102.60591 17.090429 167.80867 1.5487826e-38
113.02677 17.498966 171.82004 1.1618131e-38
120.9949 17.498966 171.82004 8.9433657e-39
119.00632 16.147943 158.55452 1.7238813e-38
126.35926 16.147943 158.55452 1.2815555e-38
-130.66071 22.19528 149.74593 5.0707456e-39
-122.44083 21.966463 148.20216 4.3342624e-39
-118.83492 22.587423 152.39162 4.2417122e-39
-115.86184 23.414801 157.97372 4.6104948e-39
-108.13972 23.329346 157.39719 4.3349869e-39
-102.33438 23.674965 159.72899 4.6090626e-39
-93.541176 23.329346 157.39719 6.728839e-39
-86.876038 23.500885 158.55452 6.4515333e-39
-81.012291 23.940975 161.5237 6.8214088e-39
-75.211807 24.491343 165.23689 9.03482e-39
-67.808777 24.585541 165.87242 7.9277564e-39
-59.886139 24.491343 165.23689 7.7440812e-39
-52.830551 24.776127 167.15825 8.7575199e-39
-45.608948 25.06761 169.12482 9.4028977e-39
-37.914494 25.166302 169.79066 9.402162e-39
-29.805788 24.96969 168.46417 8.5731286e-39
-22.4314 25.467094 171.82004 1.0327012e-38
-14.292447 25.166302 169.79066 8.5734747e-39
-6.3682876 24.96969 168.46417 1.6595613e-38
1.4057735 24.305098 163.98033 1.4842077e-38
8.6802874 23.414801 157.97372 8.5713279e-39
16.427513 24.030979 162.13094 1.6776387e-38
24.405052 24.491343 165.23689 1.7054771e-38
31.465107 24.030979 162.13094 1.6315415e-38
38.549141 23.762976 160.32278 8.4784092e-39
46.854996 24.213032 163.35919 1.3183622e-38
54.846256 24.397865 164.60622 1.3549546e-38
62.479843 24.397865 164.60622 8.7571639e-39
69.05909 24.030979 162.13094 8.8507973e-39
74.071709 23.244511 156.82483 1.7243865e-38
82.241615 23.500885 158.55452 1.6040295e-38
89.266373 23.414801 157.97372 1.3920146e-38
93.842415 22.748186 153.47626 1.2079081e-38
98.849197 22.272615 150.2677 1.6412312e-38
108.46328 22.82943 154.02438 1.733028e-38
111.61972 22.04221 148.7132 1.5760795e-38
119.3393 22.19528 149.74593 9.8634905e-39
-119.46121 26.642035 136.91057 3.6896161e-39
-116.82059 27.515543 141.39943 3.6878252e-39
-110.99103 27.697165 142.33276 4.2417178e-39
-106.85906 28.352163 145.69875 4.4250273e-39
-102.88293 29.139725 149.74593 6.269314e-39
-95.938477 29.139725 149.74593 5.9919999e-39
-89.930817 29.446459 151.3222 6.7292132e-39
-82.049591 29.139725 149.74593 7.8355579e-39
-75.105148 29.139725 149.74593 7.9277564e-39
-68.878181 29.446459 151.3222 6.913959e-39
-61.004436 29.038895 149.22778 8.4809302e-39
-55.036205 29.550142 151.85503 9.3114097e-39
-49.385078 30.40667 156.25662 1.032521e-38
-42.291935 30.517239 156.82483 1.0418143e-38
-35.536095 30.967678 159.13959 1.2078369e-38
-27.746479 30.517239 156.82483 8.5734915e-39
-20.180222 30.079716 154.57645 1.5026482e-38
-12.782681 29.550142 151.85503 1.576259e-38
-5.7002854 29.343498 150.79311 1.4660193e-38
1.2793025 29.038895 149.22778 7.5596927e-39
7.8208532 27.697165 142.33276 1.308927e-38
14.712857 28.256702 145.20818 9.4950933e-39
21.889067 28.839315 148.20216 9.6794902e-39
29.47084 29.550142 151.85503 9.6787685e-39
35.271152 28.545036 146.6899 9.8598863e-39
42.950413 29.139725 149.74593 9.3110538e-39
50.068707 29.241257 150.2677 1.1524101e-38
53.495811 27.425623 140.93735 7.4703557e-39
63.563042 29.038895 149.22778 8.2054139e-39
69.759308 28.740549 147.69461 1.0050065e-38
75.318916 28.256702 145.20818 1.3091442e-38
80.962524 27.881199 143.2785 1.327798e-38
89.086891 28.352163 145.69875 1.5855524e-38
93.629433 27.697165 142.33276 1.3183635e-38
97.966835 27.071743 139.1188 1.5765856e-38
102.43582 26.557724 136.47731 1.5668603e-38
111.22887 27.159355 139.56902 1.4936091e-38
-116.50243 32.174118 133.51959 3.4130334e-39
-111.69367 32.577557 135.19382 4.6094186e-39
-107.78937 33.308464 138.22702 4.8867355e-39
-102.36337 33.631847 139.56902 5.5306672e-39
-96.830986 33.961571 140.93735 5.7150585e-39
-90.889084 34.185001 141.86456 5.6235817e-39
-82.9459 33.631847 139.56902 6.1764023e-39
-77.987732 34.297825 142.33276 7.4660538e-39
-70.918961 34.072922 141.39943 6.0842067e-39
-64.573296 34.185001 141.86456 7.3749455e-39
-57.804203 34.072922 141.39943 8.2965417e-39
-51.585091 34.297825 142.33276 7.0972726e-39
-45.133385 34.411392 142.80406 8.2054447e-39
-38.767605 34.6408 143.75609 8.6642424e-39
-32.100941 34.6408 143.75609 7.8337629e-39
-25.182447 34.297825 142.33276 1.0968781e-38
-18.520664 34.185001 141.86456 1.3645341e-38
-11.825022 33.850948 140.47827 1.5395249e-38
-5.2589731 33.523357 139.1188 1.7234131e-38
1.1699951 32.886837 136.47731 1.2265303e-38
7.3139458 32.074818 133.1075 6.6344826e-39
13.828223 32.886837 136.47731 1.8527754e-38
20.481411 33.415565 138.67148 1.557892e-38
26.570536 32.991241 136.91057 1.6131737e-38
32.919743 32.991241 136.91057 1.2810172e-38
38.655373 32.475754 134.77133 9.7702383e-39
45.763435 33.096306 137.34659 1.5672215e-38
51.155373 32.475754 134.77133 1.5671484e-38
58.877304 33.308464 138.22702 1.0786554e-38
65.921417 33.631847 139.56902 1.0508158e-38
70.345032 32.68 135.61896 1.3738239e-38
76.634338 32.68 135.61896 1.4197436e-38
80.151123 31.587358 131.08458 1.5949155e-38
85.709122 31.396498 130.29253 9.5858498e-39
89.851242 30.746275 127.59416 1.4475466e-38
95.485901 30.655577 127.21778 1.1431557e-38
102.59618 31.021614 128.7368 1.9360017e-38
-107.64436 37.438793 130.29253 5.1622392e-39
-101.90995 37.552246 130.68736 5.7150585e-39
-96.728691 37.896759 131.88632 6.3604279e-39
-87.404961 36.555283 127.21778 6.4526235e-39
-84.75547 38.013008 132.29088 6.5455408e-39
-78.380066 37.896759 131.88632 7.7440798e-39
-72.485527 38.013008 132.29088 6.6384511e-39
-66.96682 38.36607 133.51959 7.006163e-39
-60.215588 38.013008 132.29088 7.1909102e-39
-54.582916 38.36607 133.51959 7.4667754e-39
-48.093174 38.129971 132.69794 1.0231924e-38
-42.330067 38.485218 133.93425 8.9422853e-39
-36.688587 39.092243 136.04678 7.7437323e-39
-30.669687 39.465736 137.34659 1.4381099e-38
-22.982777 37.326027 129.90009 1.3458418e-38
-16.907753 37.213936 129.50999 1.1985831e-38
-10.901747 37.213936 129.50999 1.6780354e-38
-4.8957405 37.213936 129.50999 1.437893e-38
1.081048 36.234623 126.10184 1.1244264e-38
6.7513347 35.305531 122.86845 7.1865872e-39
12.928162 36.663433 127.59416 1.4194188e-38
18.901241 36.772228 127.97279 1.2723036e-38
24.762482 36.663433 127.59416 1.5208329e-38
30.409733 36.340881 126.47163 9.766976e-39
35.241364 35.305531 122.86845 1.234665e-38
42.640114 36.772228 127.97279 1.5580361e-38
46.637375 35.305531 122.86845 1.3458757e-38
54.028584 36.447765 126.84361 1.1889648e-38
57.868519 35.205231 122.51939 1.465804e-38
65.600349 36.340881 126.47163 1.6408324e-38
69.827278 35.507854 123.57257 1.5211588e-38
74.913971 35.205231 122.51939 1.1431918e-38
80.14045 35.006329 121.82719 1.447148e-38
85.548508 34.907719 121.48402 1.3736811e-38
89.172783 34.138405 118.80669 1.7610823e-38
97.0896 35.006329 121.82719 2.0556012e-38
-101.51077 41.003536 122.86845 6.0849228e-39
-95.000801 40.656048 121.82719 6.268598e-39
-88.849106 40.427643 121.14278 5.1640455e-39
-83.701363 40.656048 121.82719 5.8101338e-39
-78.495117 40.887047 122.51939 7.8344817e-39
-74.723854 41.959885 125.73419 6.452992e-39
-68.892952 41.959885 125.73419 7.4667782e-39
-61.449665 40.887047 122.51939 6.8224906e-39
-55.609863 40.771221 122.17232 8.7578954e-39
-50.516567 41.238514 123.57257 7.7440798e-39
-44.914604 41.357014 123.92767 9.4047039e-39
-39.28035 41.476196 124.28481 9.1255765e-39
-33.229378 41.120689 123.21951 1.2075855e-38
-27.833185 41.596073 124.64401 1.2261317e-38
-22.376192 42.205986 126.47163 1.3551701e-38
-15.949806 40.771221 122.17232 1.8624259e-38
-10.168857 40.3144 120.80344 1.4753844e-38
-4.5035405 39.757572 119.13488 1.354774e-38
1.0074072 39.215916 117.5118 8.6631382e-39
6.4394522 39.109348 117.19247 7.5600585e-39
11.939121 39.323063 117.83286 1.5490709e-38
17.499228 39.539124 118.48029 1.9175634e-38
22.743801 39.109348 117.19247 1.8896901e-38
28.332565 39.323063 117.83286 1.6040989e-38
32.985916 38.379307 115.00488 9.9538882e-39
38.837078 38.897949 116.559 1.5580005e-38
44.604137 39.215916 117.5118 1.4472923e-38
50.327995 39.430798 118.15569 1.511579e-38
56.582554 39.978447 119.79675 1.5211214e-38
59.812084 38.481926 115.31238 1.5763295e-38
66.76635 39.430798 118.15569 1.6225363e-38
71.269508 38.897949 116.559 1.521338e-38
76.674919 38.897949 116.559 1.6408681e-38
80.770531 38.277237 114.69901 1.2905994e-38
85.183472 37.874317 113.49165 1.2170576e-38
89.504478 37.479794 112.30945 2.2399599e-38
-96.985268 42.248043 111.15162 5.1633224e-39
-93.029457 42.799583 112.60268 4.8863796e-39
-88.268456 43.024254 113.19377 6.0845584e-39
-83.677994 43.365715 114.09214 5.992367e-39
-78.386993 43.365715 114.09214 6.2685896e-39
-74.475151 44.183937 116.24482 7.8370181e-39
-68.71389 43.947025 115.62152 7.7433679e-39
-63.351963 43.947025 115.62152 8.5738531e-39
-58.302647 44.183937 116.24482 9.0344585e-39
-53.054817 44.303352 116.559 7.9281081e-39
-47.64941 44.303352 116.559 7.6511807e-39
-42.705688 44.787544 117.83286 8.296906e-39
-37.241207 44.787544 117.83286 1.0878744e-38
-31.690142 44.665504 117.5118 1.1246446e-38
-25.957632 44.183937 116.24482 1.5395616e-38
-20.622383 44.303352 116.559 1.5491413e-38
-14.894925 43.365715 114.09214 1.4840634e-38
-9.4538584 42.688126 112.30945 1.5488179e-38
-4.1482992 41.710537 109.73747 1.1243917e-38
0.92429608 40.980602 107.81707 7.0029148e-39
6.0762014 42.031387 110.58161 8.0163507e-39
11.090656 41.604671 109.45895 1.4105242e-38
16.4168 42.248043 111.15162 1.2904537e-38
21.796143 42.688126 112.30945 1.7513969e-38
26.934334 42.577248 112.01774 1.4193455e-38
31.315744 41.499344 109.18185 7.738675e-39
36.10482 41.186535 108.35886 1.6960406e-38
40.924297 40.980602 107.81707 1.5856946e-38
46.505619 41.499344 109.18185 1.6963294e-38
50.797302 40.878407 107.5482 1.5483122e-38
56.775936 41.604671 109.45895 1.5120797e-38
60.470768 40.675537 107.01446 1.6591263e-38
64.316391 39.981075 105.18739 1.7792354e-38
70.924301 40.980602 107.81707 1.3369848e-38
74.253593 40.078827 105.44456 1.2168769e-38
79.14357 40.078827 105.44456 1.2905967e-38
84.863503 40.47467 106.48599 1.7701575e-38
-91.557861 44.749977 104.93146 4.7938238e-39
-87.329124 45.079021 105.70301 6.3611467e-39
-81.825508 44.749977 104.93146 6.9146891e-39
-76.217545 44.318653 103.92007 6.4526263e-39
-72.445679 44.968803 105.44456 7.0987146e-39
-69.422821 46.211658 108.35886 6.6373805e-39
-63.75692 45.751842 107.28067 7.9281333e-39
-59.075706 45.980602 107.81707 7.7422917e-39
-54.484337 46.328064 108.63181 8.0203191e-39
-48.831547 45.751842 107.28067 9.0351857e-39
-45.322063 47.280827 110.86588 1.02305e-38
-40.703857 47.896461 112.30945 1.0507436e-38
-35.129593 47.402683 111.15162 7.190906e-39
-29.518482 46.680813 109.45895 1.0877292e-38
-24.948917 47.648293 111.72753 1.290705e-38
-19.268389 46.445053 108.90613 1.6778565e-38
-13.732394 44.859123 105.18739 1.7423923e-38
-8.7476664 44.318653 103.92007 1.2998176e-38
-4.0056057 45.189781 105.96272 1.207369e-38
0.85981029 42.772652 100.29495 1.2073686e-38
5.6964388 44.212116 103.67026 1.4287827e-38
10.606112 44.641361 104.67677 1.6777463e-38
15.460482 44.641361 104.67677 1.6223582e-38
20.820196 45.751842 107.28067 1.7423206e-38
25.230459 44.749977 104.93146 1.6041349e-38
29.592628 44.000576 103.17423 1.0691809e-38
33.970966 43.480476 101.95467 1.3827554e-38
39.25592 44.106094 103.42165 1.5025036e-38
43.633537 43.687035 102.43902 1.5949153e-38
48.499332 43.79105 102.68292 1.5675817e-38
52.3881 43.073162 100.9996 1.4657684e-38
58.300762 44.000576 103.17423 1.6316502e-38
63.085453 44.000576 103.17423 1.7700493e-38
66.439621 43.073162 100.9996 1.6680943e-38
69.179314 41.895763 98.238785 1.6595599e-38
74.756859 42.476307 99.600067 1.3090371e-38
79.375793 42.476307 99.600067 1.14265e-38
-90.240486 48.902256 103.42165 4.7009065e-39
-84.431946 48.322845 102.19627 5.254802e-39
-78.392265 47.534363 100.52874 6.5448191e-39
-73.902527 47.645424 100.76362 5.8998183e-39
-69.391762 47.757004 100.9996 9.3103195e-39
-66.418945 49.01981 103.67026 9.8642317e-39
-61.316463 48.785267 103.17423 8.4802071e-39
-56.531776 48.785267 103.17423 8.7600422e-39
-51.995869 49.01981 103.67026 8.5749349e-39
-47.301884 49.137928 103.92007 1.2535371e-38
-42.380486 49.01981 103.67026 9.4950933e-39
-38.029884 49.616158 104.93146 9.2188581e-39
-33.003105 49.375885 104.42331 9.4018075e-39
-27.957409 49.01981 103.67026 1.1152457e-38
-22.766624 48.208607 101.95467 1.3369108e-38
-17.911459 47.86911 101.23669 1.4658051e-38
-13.063298 47.313786 100.06225 1.4470057e-38
-8.40343 47.204262 99.83062 1.2075859e-38
-3.7650845 47.095245 99.600067 1.2165881e-38
0.81977481 45.215611 95.624893 7.5553739e-39
5.4226966 46.664165 98.688393 1.3828277e-38
10.068476 46.986729 99.370575 1.6407956e-38
14.744719 47.204262 99.83062 1.6040634e-38
19.329605 47.095245 99.600067 1.5764752e-38
24.115625 47.423817 100.29495 1.7605058e-38
27.859726 45.928471 97.132492 1.1426111e-38
31.861904 45.215611 95.624893 7.1905431e-39
36.539551 45.518394 96.265244 1.5947333e-38
41.939999 46.557629 98.463074 1.5300533e-38
45.981308 46.032146 97.351753 1.6503403e-38
49.0564 44.719826 94.576378 1.419744e-38
53.796288 45.015984 95.202713 1.6592348e-38
58.860981 45.518394 96.265244 1.4931742e-38
61.273693 44.043716 93.1465 1.4013387e-38
65.735321 44.13905 93.348114 1.613243e-38
69.762329 43.948795 92.945747 1.3737182e-38
75.20726 44.621971 94.369423 1.3735728e-38
-84.184074 50.094498 96.480598 5.4388401e-39
-76.459831 48.052017 92.546844 6.7310195e-39
-72.792816 48.468056 93.348114 6.177124e-39
-69.061752 48.891357 94.163383 7.3756644e-39
-66.435608 50.206818 96.696922 8.75788e-39
-61.812714 50.094498 96.480598 1.0049326e-38
-56.956184 49.760536 95.837395 6.731374e-39
-53.341496 50.546818 97.351753 8.8515175e-39
-50.070099 51.833893 99.83062 9.1248716e-39
-45.440468 51.833893 99.83062 1.0047177e-38
-40.810837 51.833893 99.83062 9.4032536e-39
-36.097649 51.714184 99.600067 8.6649683e-39
-31.551579 51.833893 99.83062 1.105989e-38
-26.613916 51.240826 98.688393 1.3458771e-38
-21.887005 50.891457 98.015518 1.3829381e-38
-17.069981 50.094498 96.480598 1.6133535e-38
-12.511737 49.760536 95.837395 1.3917951e-38
-8.0138664 49.430996 95.202713 9.952812e-39
-3.5135379 48.25914 92.945747 7.5535592e-39
0.7849648 47.541912 91.564392 6.0809585e-39
5.1181827 48.363373 93.1465 1.059926e-38
9.3770781 48.052017 92.546844 1.3178954e-38
13.757491 48.363373 93.1465 1.336695e-38
18.155571 48.573189 93.550606 1.4842088e-38
22.30047 48.155357 92.745865 1.4563342e-38
26.658876 48.25914 92.945747 1.0964795e-38
30.125196 46.943901 90.412636 1.0595298e-38
34.608284 47.340889 91.177223 1.5854046e-38
39.084507 47.643066 91.759209 1.4749532e-38
42.974091 47.241016 90.984871 1.345877e-38
46.314117 46.360748 89.289497 1.8528812e-38
50.770248 46.650501 89.847557 1.5577824e-38
54.595692 46.360748 89.289497 1.4473293e-38
59.350876 46.845692 90.223488 1.5028992e-38
64.071136 47.241016 90.984871 1.4104512e-38
67.296715 46.553516 89.660767 1.5948801e-38
71.903175 46.845692 90.223488 1.3647488e-38
-84.562431 54.814026 96.914223 6.819611e-39
-74.075432 50.711521 89.660767 6.2685868e-39
-70.503738 51.136772 90.412636 6.268235e-39
-65.896423 50.817169 89.847557 5.3466459e-39
-62.909306 51.788197 91.564392 8.5752866e-39
-59.29245 52.343864 92.546844 8.0203191e-39
-55.597141 52.911587 93.550606 9.4039879e-39
-51.482098 53.142136 93.958229 8.6660403e-39
-46.616985 52.569485 92.945747 8.0199688e-39
-42.860878 53.258167 94.163383 9.031569e-39
-38.747871 53.609322 94.784241 6.0849144e-39
-34.052902 53.142136 93.958229 7.6507981e-39
-29.502775 52.797058 93.348114 1.3827575e-38
-25.505005 53.491756 94.576378 1.3185456e-38
-20.489962 51.898384 91.759209 1.4566957e-38
-16.234642 51.898384 91.759209 1.345735e-38
-11.490371 49.780083 88.013931 1.8346615e-38
-7.6106534 51.136772 90.412636 1.493102e-38
-3.3203292 49.678699 87.834679 9.0294236e-39
0.74841785 49.377007 87.30127 7.8355579e-39
4.9062495 50.501534 89.289497 1.603737e-38
9.0658064 50.606308 89.474747 1.6040637e-38
13.523819 51.788197 91.564392 1.437893e-38
17.473316 50.92326 90.035133 1.5760443e-38
21.513939 50.606308 89.474747 1.4011592e-38
25.716671 50.711521 89.660767 1.3456959e-38
28.286848 48.016224 84.895332 1.1247198e-38
32.870922 48.980404 86.60006 1.1245357e-38
37.110542 49.277256 87.124908 1.4935003e-38
41.570854 49.780083 88.013931 1.5763683e-38
44.919113 48.980404 86.60006 1.2631168e-38
48.739437 48.784481 86.253654 1.2722656e-38
52.845127 48.882248 86.426506 1.0971668e-38
55.736187 47.921886 84.728539 1.3459141e-38
59.782913 48.016224 84.895332 1.2536837e-38
65.393372 49.277256 87.124908 1.2076938e-38
68.602234 48.687107 86.08149 1.2818455e-38
-72.126076 53.425591 87.30127 6.3629558e-39
-67.530685 52.996468 86.60006 9.1288611e-39
-63.514622 52.996468 86.60006 7.4646118e-39
-59.738472 53.210163 86.949249 8.298348e-39
-57.205555 54.642323 89.289497 8.3905408e-39
-53.958488 55.562614 90.79332 7.4685845e-39
-49.127407 54.869522 89.660767 7.6511695e-39
-45.441769 55.445885 90.602577 8.8522616e-39
-41.326908 55.562614 90.79332 8.940465e-39
-36.806435 55.098625 90.035133 1.1337916e-38
-32.360832 54.642323 89.289497 9.493287e-39
-27.760248 53.752018 87.834679 1.1246796e-38
-23.979963 54.416992 88.921295 1.1801055e-38
-19.455114 53.317657 87.124908 1.8802536e-38
-15.291145 52.890263 86.426506 1.2628655e-38
-11.2157 52.574184 85.910019 1.2719047e-38
-7.1603189 52.055702 85.062775 9.1245017e-39
-3.0993948 50.175362 81.990166 7.4653349e-39
0.72351944 51.64822 84.396927 6.173873e-39
4.6283565 51.547344 84.232086 1.4840285e-38
8.6529083 52.261864 85.399658 1.6131021e-38
12.440857 51.547344 84.232086 1.631506e-38
16.347107 51.547344 84.232086 1.5668601e-38
20.412832 51.953232 84.895332 1.6223583e-38
24.254351 51.749493 84.562408 1.3458418e-38
27.215376 49.985306 81.679596 7.8305175e-39
31.785862 51.24707 83.741417 9.9553582e-39
35.878357 51.547344 84.232086 1.0416334e-38
39.399841 51.04882 83.417465 1.1615949e-38
43.60569 51.446865 84.067894 1.4654451e-38
47.411903 51.346771 83.904335 1.2721552e-38
49.754189 49.79668 81.371376 1.1153862e-38
53.027512 49.331291 80.610893 8.4801931e-39
58.628803 50.950272 83.256424 1.1154969e-38
62.489807 50.950272 83.256424 1.0141179e-38
67.259727 51.64822 84.396927 1.1708143e-38
-70.555016 56.22226 85.399658 5.8998155e-39
-65.556107 55.345501 84.067894 7.0998048e-39
-60.944668 54.705666 83.096008 8.2047062e-39
-56.331333 53.977646 81.990166 6.3611495e-39
-52.529053 53.977646 81.990166 8.1143084e-39
-50.954834 56.445808 85.73922 9.3099678e-39
-47.545837 57.127247 86.7743 7.6529926e-39
-43.60944 57.24242 86.949249 7.6515324e-39
-39.260563 56.784481 86.253654 8.3887373e-39
-34.911449 56.22226 85.399658 1.1524457e-38
-31.136021 56.55825 85.910019 1.2537916e-38
-26.831264 55.89024 84.895332 1.1800336e-38
-22.849277 55.780434 84.728539 1.4661665e-38
-18.378401 54.183666 82.303108 1.6316883e-38
-14.423973 53.671532 81.525192 1.4477271e-38
-10.663412 53.773182 81.679596 1.1614503e-38
-6.7982802 53.168991 80.761848 1.5486719e-38
-2.9427466 51.249531 77.84626 1.0234819e-38
0.67838246 52.095856 79.131798 1.0509597e-38
4.5223637 54.183666 82.303108 1.1152454e-38
8.1676979 53.069611 80.610893 1.5025022e-38
12.041056 53.671532 81.525192 1.4566572e-38
15.644334 53.069611 80.610893 1.3090728e-38
19.676886 53.875221 81.834587 1.3364429e-38
23.516575 53.977646 81.990166 9.9517218e-39
26.561403 52.481037 79.716873 6.2657127e-39
30.146812 52.287735 79.423256 6.1731569e-39
34.017998 52.578224 79.864494 1.2995296e-38
37.791687 52.675774 80.012665 1.6501262e-38
41.425404 52.578224 79.864494 1.4568365e-38
44.797279 52.19162 79.27726 1.1798529e-38
48.473747 52.19162 79.27726 9.1245017e-39
51.116611 51.157192 77.705994 6.5462428e-39
55.826691 52.19162 79.27726 8.2983228e-39
59.722729 52.384209 79.569794 7.6529561e-39
62.948204 52.000443 78.986862 1.1893599e-38
-68.257248 58.222683 82.618446 5.8987295e-39
-62.393845 56.386349 80.012665 5.1626035e-39
-57.93092 55.663445 78.986862 5.3480836e-39
-54.870892 56.281929 79.864494 7.9266774e-39
-52.231155 57.452251 81.525192 8.6678339e-39
-48.450439 57.452251 81.525192 8.5738447e-39
-45.095959 58.000462 82.303108 1.1247878e-38
-41.279163 58.000462 82.303108 8.021031e-39
-37.319927 57.779926 81.990166 8.5727727e-39
-33.774487 58.222683 82.618446 1.179925e-38
-29.491098 57.343849 81.371376 1.4287463e-38
-25.524872 56.91431 80.761848 1.4013395e-38
-21.577517 56.386349 80.012665 1.6134988e-38
-17.605635 55.561684 78.842461 1.3643534e-38
-13.87324 55.258621 78.412415 1.3644253e-38
-10.162963 54.859642 77.84626 1.4012344e-38
-6.5058813 54.466381 77.288223 8.4758869e-39
-2.8254447 52.672863 74.743202 7.3717001e-39
0.6602115 54.271858 77.012192 8.4784092e-39
4.2929683 55.058407 78.128311 1.3181828e-38
7.9305234 55.158333 78.270103 1.2169488e-38
11.518478 54.958843 77.98703 1.3459871e-38
14.999496 54.466381 77.288223 1.3922642e-38
18.617088 54.564167 77.426979 1.3456623e-38
22.128298 54.368946 77.149963 1.1892196e-38
25.478224 53.886951 76.466003 9.9564232e-39
28.870756 53.601837 76.061424 8.5695245e-39
32.920643 54.466381 77.288223 1.3277297e-38
36.636185 54.662304 77.566238 1.2997437e-38
38.769009 52.672863 74.743202 1.3088919e-38
41.586552 51.863892 73.595268 1.060427e-38
46.754822 53.886951 76.466003 9.217405e-39
50.211891 53.791576 76.330666 7.7426406e-39
54.523731 54.564167 77.426979 7.5586207e-39
58.01025 54.466381 77.288223 6.9146835e-39
61.927422 54.760796 77.705994 8.6656872e-39
-58.083389 55.945148 74.485023 9.0323089e-39
-56.583691 57.946766 77.149963 7.7455259e-39
-52.911217 57.843288 77.012192 6.5459262e-39
-50.145702 58.788097 78.270103 7.4671328e-39
-47.114491 59.544559 79.27726 7.2813136e-39
-43.840969 60.096924 80.012665 7.4664251e-39
-39.908268 59.764282 79.569794 9.9557071e-39
-36.085075 59.544559 79.27726 1.1983637e-38
-32.113445 59.002262 78.555244 1.3181115e-38
-27.961149 57.946766 77.149963 1.3182558e-38
-24.383331 57.946766 77.149963 1.2443912e-38
-20.261814 56.432476 75.13385 1.4108845e-38
-16.984625 57.129173 76.061424 1.4010535e-38
-13.20118 56.041939 74.613892 8.5742104e-39
-9.8088531 56.432476 75.13385 1.0505644e-38
-6.1634665 54.995316 73.220421 6.3575482e-39
-2.7585137 54.809208 72.972633 5.9887629e-39
0.6309188 55.276863 73.595268 1.2810521e-38
4.1140947 56.23653 74.872963 1.6225391e-38
7.5995107 56.334332 75.003181 1.4010888e-38
11.097071 56.432476 75.13385 1.3457361e-38
14.505578 56.139065 74.743202 1.7327406e-38
17.878826 55.84869 74.356598 1.3181834e-38
21.363935 55.945148 74.485023 1.4107055e-38
24.775377 55.84869 74.356598 8.2932991e-39
27.102184 53.629539 71.402031 8.3858521e-39
31.241018 55.088844 73.344948 1.0694006e-38
35.549248 56.53096 75.264969 1.3366972e-38
38.769009 56.139065 74.743202 1.2351e-38
41.515705 55.182693 73.469894 1.4382552e-38
45.153629 55.466167 73.847305 1.2814488e-38
48.330017 55.182693 73.469894 1.2075835e-38
52.181648 55.656773 74.101082 8.2958144e-39
56.491657 56.53096 75.264969 7.8352118e-39
59.773426 56.334332 75.003181 5.8065338e-39
-58.385906 59.708752 74.872963 5.3477137e-39
-55.589249 60.443306 75.794075 6.7295915e-39
-52.911217 61.414715 77.012192 5.8076198e-39
-49.605534 61.745495 77.426979 6.2689623e-39
-47.551544 63.807499 80.012665 8.0203065e-39
-43.438019 63.221031 79.27726 7.9295739e-39
-39.688591 63.10503 79.131798 1.0509237e-38
-35.179718 61.634842 77.288223 1.115425e-38
-31.314888 61.087463 76.60183 1.3001023e-38
-27.861465 61.305244 76.874916 1.3736808e-38
-23.912775 60.337265 75.661102 1.3278365e-38
-20.261814 59.916798 75.13385 1.3738992e-38
-16.405931 58.589848 73.469894 1.2815931e-38
-12.976669 58.490208 73.344948 1.3735005e-38
-9.5753088 58.490208 73.344948 1.2538254e-38
-6.0707049 57.512108 72.118439 8.4776819e-39
-2.7307899 57.608444 72.239243 7.6526002e-39
0.62664139 58.291935 73.096321 1.1339344e-38
4.0438881 58.689831 73.595268 1.1985799e-38
7.5339975 59.296967 74.356598 1.1523735e-38
11.135872 60.126297 75.396553 8.3883856e-39
14.43055 59.296967 74.356598 1.0417066e-38
17.817387 59.093197 74.101082 1.3735027e-38
21.001221 58.390903 73.220421 1.3271869e-38
24.521704 58.689831 73.595268 8.2904054e-39
26.191549 55.027584 69.002922 1.24479e-38
30.667311 57.416096 71.998047 7.2812968e-39
35.364094 59.708752 74.872963 1.585299e-38
38.502098 59.194908 74.228622 1.6316858e-38
41.234718 58.193302 72.972633 1.1799601e-38
44.846462 58.490208 73.344948 1.2995642e-38
47.921822 58.095001 72.849373 1.0139024e-38
52.452019 59.39938 74.485023 7.5593368e-39
56.002975 59.502148 74.613892 4.9782123e-39
59.87756 59.916798 75.13385 5.0714967e-39
