# .PCD v0.7 - Point Cloud Data file format
VERSION 0.7
FIELDS x y z rgb
SIZE 4 4 4 4
TYPE F F F F
COUNT 1 1 1 1
WIDTH 1085
HEIGHT 1
VIEWPOINT 0 0 0 1 0 0 0
POINTS 1085
DATA ascii
27.081131 29.760687 85.230888 2.1483003e-38
28.286848 29.643518 84.895332 2.3509869e-38
28.860624 28.903852 82.777023 2.3234367e-38
29.967657 28.738373 82.303108 2.3417679e-38
31.299654 28.793322 82.460472 2.3509886e-38
31.607393 27.938604 80.012665 2.3315031e-38
33.465126 28.466743 81.525192 1.5017789e-38
35.669357 29.240597 83.741417 1.2625759e-38
37.180439 29.411928 84.232086 7.8337685e-39
38.557831 29.469486 84.396927 1.2256607e-38
39.784607 29.411928 84.232086 2.2867037e-38
41.086689 29.411928 84.232086 2.3509876e-38
42.471725 29.469486 84.396927 2.3234376e-38
43.60569 29.354595 84.067894 2.350557e-38
44.905235 29.354595 84.067894 1.1143064e-38
46.025345 29.240597 83.741417 6.267156e-39
47.319843 29.240597 83.741417 7.0976468e-39
48.803871 29.354595 84.067894 5.6217866e-39
50.201275 29.411928 84.232086 9.4940031e-39
51.203339 29.240597 83.741417 1.1704889e-38
52.093227 29.015236 83.096008 1.1886385e-38
53.480797 29.071249 83.256424 7.0933154e-39
55.301598 29.354595 84.067894 5.7139823e-39
56.054798 29.071249 83.256424 7.0076064e-39
56.577244 28.683634 82.146339 5.8069038e-39
57.73711 28.629101 81.990166 5.7147081e-39
60.031693 29.12748 83.417465 5.3480836e-39
61.321186 29.12748 83.417465 5.994525e-39
62.3694 29.015236 83.096008 5.4392016e-39
63.776806 29.071249 83.256424 5.348085e-39
63.710873 28.466743 81.525192 7.1927123e-39
65.591064 28.738373 82.303108 8.5738447e-39
67.63781 29.071249 83.256424 5.6228796e-39
-60.054077 28.081383 77.012192 6.265333e-39
-58.968903 28.131617 77.149963 6.5419198e-39
-57.776295 28.131617 77.149963 6.724872e-39
-57.614357 28.644033 78.555244 6.6330393e-39
-56.813972 28.854265 79.131798 6.8185123e-39
-55.795486 28.960541 79.423256 6.910708e-39
-54.769466 29.067604 79.716873 6.3578985e-39
-54.855331 29.783285 81.679596 5.2519139e-39
-55.267479 30.714012 84.232086 4.5168698e-39
-55.040401 31.325846 85.910019 2.9495469e-39
-53.819592 31.388371 86.08149 3.5949163e-39
-52.488918 31.388371 86.08149 2.3963703e-39
-51.673958 31.704786 86.949249 2.9484651e-39
-50.431545 31.768837 87.124908 3.8718633e-39
-49.184109 31.833145 87.30127 4.3328429e-39
-48.02903 31.962549 87.656151 4.1480901e-39
-47.445488 32.490856 89.105019 5.0696891e-39
-45.690468 32.224537 88.374649 3.9626198e-39
-44.598518 32.423862 88.921295 3.2257765e-39
-43.313255 32.490856 89.105019 3.1342997e-39
-42.022667 32.558125 89.289497 3.5030822e-39
-40.726727 32.625671 89.474747 3.594559e-39
-39.756008 32.967659 90.412636 3.5949163e-39
-38.438969 33.036919 90.602577 3.8715032e-39
-36.729755 32.761612 89.847557 3.9636988e-39
-35.563133 32.967659 90.412636 4.6079864e-39
-34.309364 33.106472 90.79332 8.0174171e-39
-32.699333 32.898689 90.223488 6.6359302e-39
-31.109386 32.693501 89.660767 3.0399447e-39
-29.118021 32.027645 87.834679 4.0551686e-39
-27.703825 31.962549 87.656151 6.266419e-39
-26.13632 31.704786 86.949249 6.6359386e-39
-24.842319 31.768837 87.124908 6.1724353e-39
-23.49552 31.768837 87.124908 4.7934595e-39
-22.148718 31.768837 87.124908 5.9894789e-39
-20.844025 31.833145 87.30127 5.9909237e-39
-19.455114 31.768837 87.124908 5.9891258e-39
-18.108313 31.768837 87.124908 6.0816746e-39
-16.82951 31.897717 87.478355 5.3448368e-39
-15.414711 31.768837 87.124908 5.6224943e-39
-14.096387 31.833145 87.30127 7.0047099e-39
-12.69546 31.704786 86.949249 4.7001863e-39
-11.083232 30.955854 84.895332 5.5285036e-39
-9.770896 30.955854 84.895332 4.9753298e-39
-8.392477 30.714012 84.232086 6.5437317e-39
-7.0628047 30.594501 83.904335 7.0958265e-39
-5.7657881 30.594501 83.904335 6.0813116e-39
-4.40873 30.183443 82.777023 5.8050905e-39
-3.1351569 30.241489 82.936211 5.0686016e-39
-1.8566762 30.299757 83.096008 4.8838573e-39
-0.56346917 29.8398 81.834587 5.3433907e-39
0.69106251 29.393597 80.610893 6.1727856e-39
1.9192317 29.121433 79.864494 1.9810504e-38
3.2133052 29.670895 81.371376 5.9883971e-39
4.5137496 29.953474 82.146339 5.9894817e-39
5.8504529 30.299757 83.096008 6.1724381e-39
7.1487489 30.358252 83.256424 8.1092512e-39
8.4520664 30.416971 83.417465 1.4656254e-38
9.7415571 30.416971 83.417465 1.8702377e-38
10.925386 30.125622 82.618446 1.243886e-38
12.179194 30.06802 82.460472 1.1613045e-38
13.479665 30.125622 82.618446 1.6406531e-38
14.616796 29.8398 81.834587 1.3643537e-38
15.972746 30.010637 82.303108 1.982099e-38
17.17944 29.896528 81.990166 1.1890033e-38
18.517275 30.010637 82.303108 1.8801042e-38
19.865362 30.125622 82.618446 1.8894734e-38
21.264711 30.299757 83.096008 1.354956e-38
22.724373 30.535095 83.741417 1.4841375e-38
24.065601 30.594501 83.904335 1.6410836e-38
25.412058 30.65414 84.067894 1.115425e-38
26.607868 30.535095 83.741417 1.7607949e-38
27.902367 30.535095 83.741417 2.0277995e-38
28.586285 29.896528 81.990166 2.1839923e-38
29.910576 29.953474 82.146339 1.9268182e-38
31.003256 29.783285 81.679596 2.3509873e-38
31.490545 29.067604 79.716873 2.3509527e-38
33.089817 29.393597 80.610893 1.1330363e-38
34.791134 29.783285 81.679596 8.6649809e-39
36.190845 29.896528 81.990166 9.0305152e-39
38.110352 30.416971 83.417465 1.1705611e-38
39.248013 30.299757 83.096008 1.2169474e-38
40.145775 30.010637 82.303108 2.3231494e-38
40.87204 29.615017 81.218132 2.341805e-38
42.527985 29.896528 81.990166 2.3508804e-38
43.712307 29.8398 81.834587 2.0917568e-38
45.67062 30.299757 83.096008 1.9086265e-38
46.507099 30.010637 82.303108 7.1873173e-39
48.33279 30.358252 83.256424 7.7444665e-39
49.051628 30.010637 82.303108 1.1523749e-38
50.516705 30.125622 82.618446 1.2631903e-38
51.108479 29.726984 81.525192 1.4376058e-38
52.269909 29.670895 81.371376 2.1750931e-38
52.731819 29.229692 80.161392 1.3271855e-38
55.097507 29.8398 81.834587 1.096733e-38
55.416142 29.338758 80.460503 8.7513836e-39
56.032692 29.013975 79.569794 1.0881226e-38
57.262703 29.013975 79.569794 8.5698916e-39
58.600838 29.067604 79.716873 8.7549849e-39
59.503159 28.907305 79.27726 6.5444842e-39
60.728649 28.907305 79.27726 1.4749532e-38
62.297695 29.067604 79.716873 1.2076574e-38
63.52998 29.067604 79.716873 1.1154263e-38
65.857864 29.559349 81.065468 1.0413083e-38
-57.030476 28.360279 74.613892 6.448648e-39
-57.365807 29.115881 76.60183 6.448648e-39
-57.301235 29.696089 78.128311 6.6330393e-39
-56.709919 30.022419 78.986862 6.6341183e-39
-55.692921 30.132795 79.27726 6.2656987e-39
-55.383705 30.639702 80.610893 5.2529929e-39
-53.835716 30.468849 80.161392 4.8845733e-39
-54.105064 31.342716 82.460472 3.5949135e-39
-54.071003 32.078751 84.396927 3.0417425e-39
-52.973705 32.204796 84.728539 2.671881e-39
-51.970253 32.395733 85.230888 3.2261338e-39
-51.056339 32.653866 85.910019 3.962617e-39
-49.432903 32.459881 85.399658 4.2402829e-39
-48.789055 32.916145 86.60006 4.2406472e-39
-47.072273 32.653866 85.910019 4.056256e-39
-45.293129 32.331837 85.062775 3.7796691e-39
-44.953526 33.048874 86.949249 4.1470083e-39
-43.69754 33.115639 87.124908 3.6867546e-39
-42.608974 33.317562 87.656151 3.5030822e-39
-41.003937 33.115639 87.124908 3.594559e-39
-40.308586 33.659634 88.556114 3.8711459e-39
-39.100239 33.798435 88.921295 3.5938387e-39
-37.960476 34.008797 89.474747 3.594559e-39
-36.201813 33.659634 88.556114 3.594559e-39
-34.976528 33.798435 88.921295 7.2816625e-39
-33.532818 33.728889 88.738327 5.3441095e-39
-32.161076 33.728889 88.738327 3.5938345e-39
-30.352161 33.249981 87.478355 3.4094432e-39
-28.593897 32.784481 86.253654 4.6090654e-39
-27.04421 32.524288 85.569099 6.4526235e-39
-25.875479 32.719044 86.08149 4.5172341e-39
-24.792234 33.048874 86.949249 6.0813088e-39
-23.353979 32.916145 86.60006 4.3335617e-39
-22.059587 32.982376 86.7743 6.912517e-39
-20.759977 33.048874 86.949249 4.6079906e-39
-19.415892 33.048874 86.949249 4.8853034e-39
-18.035442 32.982376 86.7743 6.1738702e-39
-16.627151 32.850182 86.426506 5.251195e-39
-15.230103 32.719044 86.08149 6.267512e-39
-13.762085 32.395733 85.230888 5.7136179e-39
-12.371215 32.204796 84.728539 4.3310394e-39
-10.996644 32.016094 84.232086 7.0032819e-39
-9.5822687 31.645252 83.256424 4.7909386e-39
-8.2633619 31.52354 82.936211 5.5299455e-39
-6.9148221 31.223316 82.146339 5.8980106e-39
-5.6449809 31.223316 82.146339 5.8050905e-39
-4.3668218 31.163956 81.990166 5.1604441e-39
-3.0818179 30.987223 81.525192 4.8842132e-39
-1.8215783 30.987223 81.525192 4.7001849e-39
-0.55608284 30.697081 80.761848 4.4239511e-39
0.68088108 30.18829 79.423256 6.2646309e-39
1.9051197 30.132795 79.27726 1.0042484e-38
3.2012253 30.812483 81.065468 4.515795e-39
4.4627466 30.87051 81.218132 5.1597211e-39
5.7398586 30.987223 81.525192 8.294018e-39
7.0133557 31.04591 81.679596 8.8475407e-39
8.3232737 31.223316 82.146339 1.9547629e-38
9.5567083 31.10482 81.834587 2.2303775e-38
10.801234 31.04591 81.679596 2.0460933e-38
12.063861 31.04591 81.679596 1.8432964e-38
13.326488 31.04591 81.679596 1.5195339e-38
14.53406 30.928757 81.371376 9.8613437e-39
15.821774 30.987223 81.525192 1.723698e-38
17.049784 30.928757 81.371376 1.8066393e-38
18.376993 31.04591 81.679596 1.4193081e-38
19.491953 30.812483 81.065468 1.521411e-38
20.862732 30.987223 81.525192 1.742752e-38
22.249147 31.163956 81.990166 1.4378932e-38
23.471952 31.10482 81.834587 1.3641011e-38
24.784002 31.163956 81.990166 1.1519796e-38
26.150864 31.282902 82.303108 1.6960745e-38
27.112677 30.928757 81.371376 1.0690405e-38
28.105392 30.639702 80.610893 1.5486331e-38
29.3515 30.639702 80.610893 1.0224353e-38
30.654903 30.697081 80.761848 8.8406911e-39
31.202171 30.022419 78.986862 1.0961563e-38
31.89739 29.535568 77.705994 1.409766e-38
33.39949 29.804073 78.412415 8.2911243e-39
35.187405 30.299891 79.716873 1.0687507e-38
36.285549 30.18829 79.423256 1.2720842e-38
37.861931 30.468849 80.161392 1.5025022e-38
38.884262 30.299891 79.716873 2.3509167e-38
39.968788 30.18829 79.423256 2.341805e-38
41.196537 30.18829 79.423256 2.3509879e-38
42.424282 30.18829 79.423256 2.2030065e-38
43.652031 30.18829 79.423256 2.1105232e-38
45.980602 30.928757 81.371376 2.3507341e-38
47.238464 30.928757 81.371376 1.013468e-38
48.133057 30.697081 80.761848 7.4646118e-39
49.660488 30.87051 81.218132 1.0324141e-38
50.629936 30.697081 80.761848 1.1063865e-38
51.588551 30.525587 80.310669 1.1341858e-38
52.150219 30.132795 79.27726 1.2165155e-38
54.273617 30.639702 80.610893 1.4653713e-38
54.802681 30.243986 79.569794 1.4101624e-38
55.622196 30.022419 78.986862 1.3089984e-38
56.843197 30.022419 78.986862 1.6577561e-38
58.064198 30.022419 78.986862 2.0457713e-38
59.393982 30.077505 79.131798 2.2208709e-38
60.395588 29.967533 78.842461 1.8614504e-38
62.068237 30.18829 79.423256 1.38308e-38
63.17963 30.132795 79.27726 1.677781e-38
64.405121 30.132795 79.27726 1.0046813e-38
-57.487663 29.160526 73.721077 6.2642568e-39
-56.251904 29.110764 73.595268 6.3564524e-39
-57.57032 30.408035 76.874916 6.1731429e-39
-56.888996 30.681488 77.566238 6.4497298e-39
-56.813972 31.300747 79.131798 5.9891118e-39
-55.692921 31.358286 79.27726 5.8054408e-39
-54.769466 31.532177 79.716873 5.0693205e-39
-54.855331 32.308537 81.679596 3.8715004e-39
-53.289921 32.126003 81.218132 2.7655158e-39
-52.529053 32.431381 81.990166 3.1342983e-39
-52.153996 32.995953 83.417465 3.0417397e-39
-51.562645 33.448837 84.562408 2.949907e-39
-50.552826 33.646759 85.062775 3.8718633e-39
-49.140976 33.580528 84.895332 4.3324813e-39
-48.208233 33.847038 85.569099 5.2544376e-39
-46.700161 33.713257 85.230888 4.0558917e-39
-45.744255 33.981888 85.910019 5.0689674e-39
-44.32793 33.91433 85.73922 4.5157936e-39
-43.002548 33.91433 85.73922 4.1470125e-39
-42.180313 34.323757 86.7743 4.3314023e-39
-40.838932 34.323757 86.7743 3.410525e-39
-39.339241 34.186188 86.426506 4.1480873e-39
-38.156166 34.323757 86.7743 4.423598e-39
-37.26466 34.743191 87.834679 4.515795e-39
-35.688831 34.5322 87.30127 3.409446e-39
-33.657967 33.847038 85.569099 5.1611602e-39
-32.464043 33.981888 85.910019 3.4094432e-39
-31.07412 33.91433 85.73922 3.3176035e-39
-29.572363 33.713257 85.230888 4.423235e-39
-28.088308 33.514553 84.728539 8.0185087e-39
-26.726044 33.448837 84.562408 4.9745941e-39
-25.319561 33.31818 84.232086 5.9887741e-39
-24.254335 33.646759 85.062775 5.2558698e-39
-22.715395 33.31818 84.232086 4.2406585e-39
-21.455215 33.383381 84.396927 4.8838573e-39
-20.111227 33.31818 84.232086 4.423598e-39
-18.809145 33.31818 84.232086 4.3314037e-39
-17.541321 33.383381 84.396927 5.2533586e-39
-16.204977 33.31818 84.232086 5.0686016e-39
-14.873843 33.253231 84.067894 5.0686129e-39
-13.495378 33.059898 83.579124 4.5150761e-39
-12.203388 33.059898 83.579124 6.3582615e-39
-10.890293 32.995953 83.417465 5.8972805e-39
-9.527092 32.742626 82.777023 4.3317527e-39
-8.1691036 32.431381 81.990166 4.7913071e-39
-6.8238378 32.065617 81.065468 6.5426527e-39
-5.5707049 32.065617 81.065468 4.4228791e-39
-4.3014011 31.94552 80.761848 4.0548169e-39
-3.0246413 31.649179 80.012665 4.8842104e-39
-1.7911059 31.708006 80.161392 5.0686044e-39
-0.54787499 31.473999 79.569794 4.7909386e-39
0.67343974 31.072691 78.555244 6.5440848e-39
1.8946711 31.186302 78.842461 9.028332e-39
3.1421621 31.473999 79.569794 4.3310366e-39
4.3965092 31.649179 80.012665 5.2529957e-39
5.6333675 31.649179 80.012665 6.8206843e-39
6.8321991 31.473999 79.569794 7.0050728e-39
8.1372786 31.767054 80.310669 1.1978592e-38
9.3093996 31.532177 79.716873 2.3506274e-38
10.541685 31.532177 79.716873 2.2393785e-38
11.817659 31.649179 80.012665 2.1662383e-38
13.030343 31.590569 79.864494 2.2952368e-38
14.398228 31.885809 80.610893 2.350988e-38
15.442286 31.473999 79.569794 2.3508793e-38
16.550156 31.24342 78.986862 1.2986269e-38
17.869341 31.416037 79.423256 1.4562959e-38
19.132322 31.473999 79.569794 8.936865e-39
20.399973 31.532177 79.716873 9.4896843e-39
21.512962 31.358286 79.27726 1.02305e-38
22.864544 31.532177 79.716873 1.3270779e-38
24.09683 31.532177 79.716873 1.2538265e-38
25.282383 31.473999 79.569794 1.2809781e-38
26.512396 31.473999 79.569794 1.1425442e-38
27.691317 31.416037 79.423256 1.1610903e-38
28.812941 31.300747 79.131798 9.8566633e-39
30.091394 31.358286 79.27726 9.6733287e-39
30.531157 30.571518 77.288223 9.0286837e-39
31.222315 30.086256 76.061424 1.4564375e-38
32.284214 29.980505 75.794075 1.1148831e-38
34.73793 31.129393 78.698593 9.0294138e-39
36.086178 31.24342 78.986862 1.1151366e-38
37.375629 31.300747 79.131798 1.3178583e-38
38.669827 31.358286 79.27726 2.2401377e-38
39.604111 31.129393 78.698593 2.3418047e-38
40.970181 31.24342 78.986862 2.3234379e-38
41.732582 30.903818 78.128311 2.3507712e-38
43.174957 31.072691 78.555244 2.2302694e-38
44.55159 31.186302 78.842461 1.7965166e-38
46.022766 31.358286 79.27726 1.6953181e-38
47.075188 31.24342 78.986862 1.8793505e-38
49.474144 32.005455 80.913376 1.1059157e-38
50.160271 31.649179 80.012665 6.4508312e-39
50.645435 31.186302 78.842461 6.1760394e-39
51.864204 31.186302 78.842461 5.8094261e-39
52.317814 30.736771 77.705994 1.4291744e-38
53.231277 30.571518 77.288223 1.3544853e-38
53.751717 30.192757 76.330666 2.0651821e-38
55.422119 30.462336 77.012192 2.3503765e-38
56.612595 30.462336 77.012192 2.0277646e-38
57.80307 30.462336 77.012192 2.3418045e-38
58.993546 30.462336 77.012192 2.3142541e-38
61.056255 30.903818 78.128311 2.3509527e-38
61.484291 30.516829 77.149963 2.2866311e-38
62.676899 30.516829 77.149963 1.3450125e-38
-57.684875 30.404072 73.973976 6.0809445e-39
-57.2285 30.773565 74.872963 6.0809445e-39
-57.264095 31.428324 76.466003 6.1735031e-39
-56.786861 31.823294 77.426979 5.8054408e-39
-56.400028 32.287022 78.555244 5.4363024e-39
-55.692921 32.583775 79.27726 5.1607973e-39
-55.280376 33.070103 80.460503 3.9636988e-39
-54.648331 33.444481 81.371376 3.0421027e-39
-53.592705 33.571163 81.679596 2.6733201e-39
-52.330078 33.571163 81.679596 3.1342997e-39
-51.555672 33.892113 82.460472 4.3328429e-39
-50.766312 34.219254 83.256424 3.7796677e-39
-50.354187 34.82431 84.728539 4.9778479e-39
-48.757061 34.620262 84.232086 3.962973e-39
-47.270329 34.485554 83.904335 4.1470083e-39
-46.333885 34.756027 84.562408 3.1343025e-39
-44.503132 34.351887 83.579124 4.8860195e-39
-43.548729 34.620262 84.232086 4.1470125e-39
-42.495644 34.82431 84.728539 4.5157936e-39
-41.512108 35.100147 85.399658 3.9636988e-39
-40.112545 35.030781 85.230888 4.0548169e-39
-39.418236 35.593521 86.60006 4.3314037e-39
-37.256611 34.82431 84.728539 4.0548155e-39
-36.017616 34.892864 84.895332 3.5027207e-39
-34.842453 35.030781 85.230888 3.410525e-39
-33.392944 34.892864 84.895332 3.6860301e-39
-31.829977 34.620262 84.232086 3.6871119e-39
-30.11615 34.15332 83.096008 5.0689688e-39
-28.66593 33.957039 82.618446 4.8842076e-39
-27.44136 34.022217 82.777023 6.6344966e-39
-26.364182 34.285442 83.417465 7.3724134e-39
-24.834513 33.957039 82.618446 5.8965644e-39
-23.7852 34.285442 83.417465 4.8842104e-39
-22.627007 34.485554 83.904335 4.515795e-39
-21.1245 34.15332 83.096008 4.1480873e-39
-19.763817 34.022217 82.777023 5.2540831e-39
-18.273779 33.634865 81.834587 4.3314037e-39
-17.073553 33.762997 82.146339 5.2533558e-39
-15.773666 33.698811 81.990166 4.2392039e-39
-14.451291 33.571163 81.679596 4.2392067e-39
-13.188664 33.571163 81.679596 5.8965644e-39
-11.814162 33.256237 80.913376 3.7775097e-39
-10.445791 32.886036 80.012665 4.6072704e-39
-9.2951593 33.193958 80.761848 3.9622569e-39
-8.0467196 33.193958 80.761848 4.0555399e-39
-6.785573 33.131916 80.610893 7.8323209e-39
-5.5394673 33.131916 80.610893 4.1470111e-39
-4.3014011 33.193958 80.761848 4.8845761e-39
-3.0415702 33.070103 80.460503 4.7920176e-39
-1.771351 32.583775 79.27726 4.4235952e-39
-0.53312075 31.823294 77.426979 3.8700557e-39
0.64636087 30.988766 75.396553 8.01778e-39
1.8408262 31.484146 76.60183 7.7401141e-39
3.0908382 32.169827 78.270103 4.237762e-39
4.308579 32.228317 78.412415 5.161163e-39
5.5815902 32.583775 79.27726 6.2667917e-39
6.7821465 32.46442 78.986862 6.9110821e-39
8.0325708 32.583775 79.27726 1.9452587e-38
9.2241488 32.46442 78.986862 2.0269023e-38
10.464315 32.523991 79.131798 2.3508081e-38
11.623574 32.34594 78.698593 2.3503378e-38
12.887153 32.46442 78.986862 2.1105232e-38
14.082362 32.405071 78.842461 2.3509504e-38
15.385512 32.583775 79.27726 2.0644265e-38
16.489754 32.34594 78.698593 2.3509527e-38
17.609894 32.169827 78.270103 2.1939652e-38
18.854034 32.228317 78.412415 1.9072252e-38
20.139389 32.34594 78.698593 1.3644248e-38
21.355934 32.34594 78.698593 1.3367677e-38
22.613745 32.405071 78.842461 1.3272582e-38
23.659502 32.169827 78.270103 1.0783671e-38
24.960022 32.287022 78.555244 1.4104529e-38
26.12676 32.228317 78.412415 1.5949894e-38
27.488821 32.405071 78.842461 9.8591843e-39
28.551004 32.228317 78.412415 1.1060964e-38
29.389082 31.823294 77.426979 9.5818603e-39
30.26001 31.484146 76.60183 8.3840416e-39
30.734465 30.773565 74.872963 8.2936508e-39
32.002995 30.880791 75.13385 1.0503101e-38
34.054356 31.709435 77.149963 1.0136476e-38
35.373524 31.823294 77.426979 1.0781845e-38
36.968636 32.169827 78.270103 1.0135054e-38
38.109394 32.111546 78.128311 9.2163484e-39
39.034267 31.880529 77.566238 2.1192738e-38
40.017387 31.709435 77.149963 2.2117235e-38
40.990009 31.540167 76.738129 2.1290342e-38
42.326878 31.652811 77.012192 1.4188776e-38
43.75174 31.823294 77.426979 2.2950931e-38
44.787811 31.709435 77.149963 2.3509165e-38
45.980415 31.709435 77.149963 2.2405707e-38
48.473747 32.583775 79.27726 2.2864131e-38
48.452305 31.766262 77.288223 1.0504205e-38
49.293686 31.540167 76.738129 8.3858324e-39
50.660213 31.652811 77.012192 5.4391932e-39
50.762913 30.988766 75.396553 8.2061523e-39
51.657482 30.827085 75.003181 8.29619e-39
52.361584 30.561335 74.356598 1.1890373e-38
52.426327 29.941849 72.849373 2.2212988e-38
54.660435 30.561335 74.356598 2.1929916e-38
56.19743 30.773565 74.872963 2.3509527e-38
57.55468 30.880791 75.13385 2.3509886e-38
59.024609 31.043037 75.528595 2.3418038e-38
59.87756 30.880791 75.13385 2.3509527e-38
64.286949 32.523991 79.131798 2.3509883e-38
-57.836338 31.015583 72.726524 6.3568083e-39
-57.000477 31.17329 73.096321 5.8965532e-39
-57.030476 31.820486 74.613892 5.8043604e-39
-56.26646 32.042233 75.13385 5.5288539e-39
-55.785332 32.437813 76.061424 5.3441067e-39
-55.689957 33.079571 77.566238 4.9764088e-39
-55.692921 33.809265 79.27726 4.1470083e-39
-55.177433 34.249985 80.310669 3.0417425e-39
-54.340744 34.507019 80.913376 3.3179721e-39
-53.089962 34.507019 80.913376 3.1339382e-39
-51.936619 34.57188 81.065468 4.2399284e-39
-50.683487 34.57188 81.065468 4.7009065e-39
-49.899334 34.899887 81.834587 4.2392039e-39
-48.542202 34.83379 81.679596 4.1480873e-39
-47.823017 35.234177 82.618446 4.4246742e-39
-46.279903 35.032841 82.146339 4.1480901e-39
-45.268738 35.234177 82.618446 3.1342997e-39
-43.491695 34.83379 81.679596 4.6079892e-39
-43.21114 35.643879 83.579124 4.424677e-39
-42.000549 35.713089 83.741417 4.1480873e-39
-40.864746 35.852322 84.067894 4.0548155e-39
-39.642479 35.922344 84.232086 3.5945618e-39
-38.340393 35.922344 84.232086 3.4108866e-39
-36.822556 35.713089 83.741417 3.594559e-39
-35.459202 35.643879 83.579124 3.8718647e-39
-34.300159 35.78257 83.904335 3.5016389e-39
-32.93906 35.713089 83.741417 4.4239511e-39
-31.220207 35.234177 82.618446 3.3183294e-39
-29.715364 34.966236 81.990166 4.4239511e-39
-28.286608 34.767941 81.525192 4.3306849e-39
-26.924574 34.63699 81.218132 4.8845761e-39
-25.814928 34.83379 81.679596 7.0047099e-39
-24.59889 34.899887 81.834587 5.6217782e-39
-23.467459 35.099697 82.303108 4.700538e-39
-22.110802 34.966236 81.990166 5.8065296e-39
-20.764423 34.83379 81.679596 5.0686044e-39
-19.464931 34.767941 81.525192 5.0685988e-39
-18.136124 34.63699 81.218132 4.7923819e-39
-16.912481 34.702343 81.371376 5.8987252e-39
-15.684213 34.767941 81.525192 4.7920176e-39
-14.156367 34.122894 80.012665 4.6072704e-39
-12.871747 33.99675 79.716873 4.8842132e-39
-11.661016 34.059704 79.864494 4.3313995e-39
-10.349783 33.809265 79.27726 4.6076347e-39
-9.041193 33.50135 78.555244 6.8192368e-39
-7.8126335 33.440437 78.412415 4.6065445e-39
-6.552855 33.19899 77.84626 3.7793076e-39
-5.3982058 33.50135 78.555244 4.5165153e-39
-4.1461163 33.19899 77.84626 4.4235994e-39
-2.9587688 33.379745 78.270103 4.8838573e-39
-1.7362431 33.139172 77.705994 3.5016389e-39
-0.52464354 32.495125 76.195808 3.8704214e-39
0.63965124 31.820486 74.613892 8.7560737e-39
1.8118621 32.154266 75.396553 6.7263251e-39
3.0303414 32.726406 76.738129 3.7778628e-39
4.2544317 33.02018 77.426979 4.8845761e-39
5.4513197 33.02018 77.426979 4.8845733e-39
6.7084274 33.319279 78.128311 6.8192424e-39
7.9161568 33.319279 78.128311 9.4889598e-39
9.1737432 33.50135 78.555244 1.7504219e-38
10.294317 33.19899 77.84626 1.2713638e-38
11.394845 32.902042 77.149963 2.23956e-38
12.587451 32.902042 77.149963 2.3228244e-38
13.829536 33.02018 77.426979 2.3509523e-38
14.892737 32.726406 76.738129 2.3509879e-38
16.136402 32.843288 77.012192 2.1197777e-38
17.295992 32.784744 76.874916 2.2676507e-38
18.517355 32.843288 77.012192 2.1665268e-38
19.637697 32.726406 76.738129 2.0460917e-38
20.898308 32.843288 77.012192 1.3545207e-38
22.167955 32.961006 77.288223 1.115498e-38
23.279259 32.843288 77.012192 9.1223577e-39
24.382654 32.726406 76.738129 1.1709935e-38
25.660212 32.843288 77.012192 1.0139372e-38
27.239828 33.319279 78.128311 1.1891441e-38
27.99118 32.784744 76.874916 1.0414156e-38
29.127613 32.726406 76.738129 8.9400922e-39
30.046535 32.437813 76.061424 9.3027609e-39
30.522503 31.71076 74.356598 8.4776791e-39
31.187977 31.226215 73.220421 1.557674e-38
33.164436 32.042233 75.13385 1.0320513e-38
35.058811 32.726406 76.738129 8.204709e-39
36.374496 32.843288 77.012192 1.1336123e-38
37.632175 32.902042 77.149963 1.0133613e-38
38.686367 32.784744 76.874916 1.3458407e-38
39.662621 32.610355 76.466003 1.8619212e-38
40.700329 32.495125 76.195808 2.2957796e-38
41.584301 32.26709 75.661102 2.3418045e-38
42.904434 32.380707 75.927513 2.3417691e-38
43.769905 32.154266 75.396553 1.8888936e-38
45.172325 32.323799 75.794075 1.4380713e-38
46.020451 32.098152 75.264969 1.5115076e-38
47.767467 32.495125 76.195808 1.8252574e-38
48.431911 32.154266 75.396553 1.8053409e-38
49.510853 32.098152 75.264969 1.0694376e-38
50.062733 31.71076 74.356598 7.0061546e-39
51.212158 31.71076 74.356598 5.3473605e-39
51.737171 31.332607 73.469894 4.7048624e-39
51.987247 30.807774 72.239243 1.1066336e-38
53.916756 31.279322 73.344948 2.1850311e-38
55.90625 31.765528 74.485023 2.1193441e-38
57.75592 32.154266 75.396553 2.3509879e-38
58.818592 32.098152 75.264969 2.3416586e-38
58.551479 31.332607 73.469894 2.350988e-38
64.523727 33.871529 79.423256 2.341805e-38
-57.545216 31.978033 72.360451 6.0798655e-39
-57.291794 32.468327 73.469894 5.7125249e-39
-56.06057 32.413109 73.344948 5.3444627e-39
-55.877075 32.973888 74.613892 4.792012e-39
-55.105022 33.203671 75.13385 4.6079864e-39
-55.292171 34.033764 77.012192 3.6871119e-39
-54.687634 34.402359 77.84626 2.9495469e-39
-54.069859 34.77903 78.698593 2.8577128e-39
-53.24194 35.034756 79.27726 2.9499084e-39
-51.921005 34.970474 79.131798 2.9506273e-39
-50.697765 34.970474 79.131798 3.6874735e-39
-50.118244 35.42548 80.161392 4.7938196e-39
-48.60804 35.229034 79.716873 4.2392081e-39
-47.90707 35.624126 80.610893 3.1335808e-39
-47.012459 35.892483 81.218132 3.7789502e-39
-45.756966 35.892483 81.218132 3.6867546e-39
-45.530407 36.722366 83.096008 3.594559e-39
-43.740219 36.302681 82.146339 4.6079906e-39
-42.389637 36.233665 81.990166 4.2392039e-39
-41.279163 36.37196 82.303108 4.0548127e-39
-40.314644 36.651745 82.936211 3.6871119e-39
-39.1078 36.722366 83.096008 3.503085e-39
-37.678085 36.581398 82.777023 3.9640604e-39
-36.328766 36.511318 82.618446 3.410525e-39
-34.984604 36.441505 82.460472 3.8715032e-39
-33.969715 36.722366 83.096008 4.2392039e-39
-32.559723 36.581398 82.777023 3.5934744e-39
-30.74896 35.960201 81.371376 6.267512e-39
-29.38023 35.825012 81.065468 4.1466566e-39
-27.969374 35.624126 80.610893 7.8351838e-39
-26.673412 35.557663 80.460503 7.7411931e-39
-25.620831 35.825012 81.065468 6.0827564e-39
-24.459652 35.960201 81.371376 3.7782258e-39
-23.158094 35.892483 81.218132 4.0548155e-39
-21.657881 35.491447 80.310669 5.1618847e-39
-20.190821 35.099277 79.423256 5.6217782e-39
-19.033176 35.229034 79.716873 4.423235e-39
-17.702724 35.034756 79.27726 3.9633415e-39
-16.538034 35.164036 79.569794 3.7782286e-39
-15.251743 35.034756 79.27726 3.5934744e-39
-13.949327 34.842609 78.842461 4.423598e-39
-12.753874 34.906425 78.986862 4.6998219e-39
-11.59659 35.099277 79.423256 4.8845733e-39
-10.349783 35.034756 79.27726 4.2392081e-39
-9.041193 34.715679 78.555244 4.1462922e-39
-7.7562246 34.402359 77.84626 3.9622569e-39
-6.5885329 34.589668 78.270103 3.5949163e-39
-5.4080567 34.77903 78.698593 4.0548169e-39
-4.1611381 34.527008 78.128311 3.5938373e-39
-2.9060278 33.973099 76.874916 3.8700613e-39
-1.7024999 33.672981 76.195808 3.6860301e-39
-0.5146417 33.031036 74.743202 3.8697053e-39
0.62770534 32.358078 73.220421 9.1248562e-39
1.7746321 32.635117 73.847305 6.0816746e-39
2.9566872 33.088383 74.872963 4.2392039e-39
4.1212497 33.145927 75.003181 4.3313995e-39
5.3083658 33.319767 75.396553 5.0682485e-39
6.4400902 33.145927 75.003181 5.4377373e-39
7.6527472 33.37812 75.528595 6.6334176e-39
8.8357639 33.43668 75.661102 1.3729243e-38
9.9703703 33.319767 75.396553 2.3042411e-38
11.135872 33.319767 75.396553 2.3506273e-38
12.431776 33.672981 76.195808 2.3507348e-38
13.443372 33.26162 75.264969 2.3505927e-38
14.761409 33.613594 76.061424 1.8623166e-38
15.937187 33.613594 76.061424 2.2864153e-38
16.963377 33.319767 75.396553 2.3509151e-38
18.160627 33.37812 75.528595 2.1661279e-38
19.227152 33.203671 75.13385 2.3509503e-38
20.676771 33.672981 76.195808 2.3416937e-38
21.854628 33.672981 76.195808 2.3507702e-38
23.073248 33.732578 76.330666 1.9816302e-38
23.872913 33.203671 75.13385 1.2071532e-38
25.034353 33.203671 75.13385 1.5755753e-38
26.24151 33.26162 75.264969 1.2350626e-38
27.404978 33.26162 75.264969 8.2958004e-39
28.469076 33.145927 75.003181 1.1703453e-38
29.474716 32.973888 74.613892 9.8609681e-39
30.158522 32.468327 73.469894 8.5695034e-39
30.821676 31.978033 72.360451 9.7691326e-39
31.83342 31.871082 72.118439 1.0964079e-38
34.088326 32.973888 74.613892 1.3639192e-38
35.364094 33.088383 74.872963 9.4954604e-39
36.521503 33.088383 74.872963 1.0047168e-38
37.419056 32.860184 74.356598 1.3268981e-38
38.769009 33.031036 74.743202 1.5948074e-38
39.855339 32.973888 74.613892 1.2445723e-38
40.448895 32.523731 73.595268 1.2169485e-38
42.30854 33.088383 74.872963 2.2310991e-38
43.240734 32.916939 74.485023 2.3508808e-38
44.163319 32.747265 74.101082 1.4190222e-38
45.38678 32.803627 74.228622 1.2444263e-38
46.295181 32.635117 73.847305 1.400978e-38
47.518101 32.691093 73.973976 1.8341924e-38
48.66161 32.691093 73.973976 2.0645336e-38
49.805122 32.691093 73.973976 9.3971173e-39
50.774448 32.57933 73.721077 5.991651e-39
51.213692 32.139809 72.726524 4.9789298e-39
51.469959 31.606812 71.520447 6.8210319e-39
53.916756 32.413109 73.344948 7.5560858e-39
55.80986 32.860184 74.356598 1.723264e-38
57.255436 33.031036 74.743202 2.0191559e-38
59.024609 33.37812 75.528595 2.3509883e-38
60.939217 33.792389 76.466003 2.3234379e-38
60.827061 33.088383 74.872963 2.3509527e-38
-56.409454 32.443378 70.932281 5.7110858e-39
-59.000496 34.60627 75.661102 5.2519111e-39
-56.06057 33.546894 73.344948 4.7920148e-39
-55.780567 34.068348 74.485023 4.6083424e-39
-56.181675 35.036545 76.60183 3.3183294e-39
-55.095402 35.098885 76.738129 2.7651556e-39
-54.101696 35.224239 77.012192 2.8573513e-39
-52.911217 35.224239 77.012192 2.6733201e-39
-51.90612 35.350491 77.288223 3.0421027e-39
-51.169891 35.670116 77.98703 3.8704242e-39
-49.964344 35.670116 77.98703 3.961901e-39
-48.84713 35.734737 78.128311 4.1484544e-39
-48.339981 36.260246 79.27726 3.6871119e-39
-47.028042 36.193714 79.131798 4.3317555e-39
-46.748344 36.939278 80.761848 3.7789502e-39
-45.499905 36.939278 80.761848 4.1470083e-39
-44.334488 37.008583 80.913376 4.4250385e-39
-43.083706 37.008583 80.913376 4.6094298e-39
-41.911556 37.078148 81.065468 3.8715032e-39
-40.506145 36.939278 80.761848 4.3313995e-39
-39.33136 37.008583 80.913376 2.9491896e-39
-38.441189 37.359043 81.679596 4.0555399e-39
-37.108284 37.288422 81.525192 3.6874763e-39
-35.915939 37.359043 81.679596 3.7782258e-39
-34.392761 37.078148 81.065468 3.9636988e-39
-32.709244 36.596611 80.012665 3.1342997e-39
-31.886496 37.078148 81.065468 3.9611723e-39
-30.179535 36.528843 79.864494 4.3313995e-39
-28.732136 36.260246 79.27726 4.9774962e-39
-27.506645 36.260246 79.27726 4.3321296e-39
-26.184887 36.127426 78.986862 5.3451885e-39
-24.737354 35.799591 78.270103 4.7001821e-39
-23.786449 36.193714 79.131798 4.2392039e-39
-22.604685 36.260246 79.27726 4.6079906e-39
-21.261942 36.061378 78.842461 4.332124e-39
-19.861622 35.734737 78.128311 5.1618847e-39
-18.790052 35.995575 78.698593 4.0555371e-39
-17.605635 36.061378 78.842461 3.5938373e-39
-16.327168 35.930008 78.555244 3.77823e-39
-15.085361 35.864681 78.412415 4.0551686e-39
-13.848062 35.799591 78.270103 4.3314037e-39
-12.479597 35.350491 77.288223 3.5949163e-39
-11.145041 34.912521 76.330666 4.0548155e-39
-9.8776875 34.60627 75.661102 3.8704242e-39
-8.6625042 34.425087 75.264969 4.3328415e-39
-7.6052184 34.912521 76.330666 4.7012639e-39
-6.4026132 34.789371 76.061424 4.8856523e-39
-5.2360687 34.850838 76.195808 4.7923805e-39
-4.0156441 34.485268 75.396553 4.5165181e-39
-2.8352723 34.305347 75.003181 4.4235952e-39
-1.6817014 34.425087 75.264969 4.4235994e-39
-0.50245053 33.376606 72.972633 4.6079864e-39
0.60808951 32.443378 70.932281 9.4929157e-39
1.7447561 33.208038 72.604088 5.3441095e-39
2.9062316 33.661388 73.595268 4.2392039e-39
4.0786891 33.951073 74.228622 4.3314037e-39
5.2261362 33.951073 74.228622 4.5154307e-39
6.3517184 33.834602 73.973976 5.3448354e-39
7.5863171 34.245789 74.872963 5.7139711e-39
8.6984196 34.068348 74.485023 1.0230129e-38
9.9011316 34.245789 74.872963 1.0048256e-38
11.058539 34.245789 74.872963 1.4286409e-38
12.215946 34.245789 74.872963 2.0834793e-38
13.419951 34.365112 75.13385 2.3416615e-38
14.480482 34.127293 74.613892 2.350988e-38
15.688169 34.245789 74.872963 2.3509886e-38
16.845577 34.245789 74.872963 2.2589734e-38
17.878826 34.009609 74.356598 2.3509848e-38
19.127184 34.186436 74.743202 2.3508431e-38
20.247496 34.127293 74.613892 2.2952742e-38
21.512554 34.305347 75.003181 1.6676252e-38
23.032482 34.850838 76.195808 2.3499079e-38
23.790022 34.245789 74.872963 2.2111067e-38
24.775377 34.009609 74.356598 2.3509146e-38
26.014507 34.127293 74.613892 1.9536092e-38
27.16791 34.127293 74.613892 1.3453012e-38
28.223654 34.009609 74.356598 1.0226528e-38
29.272141 33.892738 74.101082 9.4921828e-39
29.954403 33.376606 72.972633 8.4769561e-39
30.463879 32.712395 71.520447 8.017808e-39
31.361425 32.496826 71.049141 2.2023199e-38
32.406338 32.443378 70.932281 1.3541235e-38
34.234821 33.152225 72.482063 1.2071865e-38
35.47451 33.264038 72.726524 1.2817351e-38
36.59874 33.264038 72.726524 1.3272585e-38
37.659458 33.208038 72.604088 1.5852253e-38
39.04472 33.433178 73.096321 1.5118675e-38
40.03894 33.320225 72.849373 1.4193081e-38
41.026463 33.208038 72.604088 1.6867479e-38
42.219875 33.264038 72.726524 1.8618499e-38
43.417316 33.320225 72.849373 1.8614868e-38
44.618813 33.376606 72.972633 1.2810169e-38
45.824383 33.433178 73.096321 1.6226082e-38
46.638134 33.208038 72.604088 2.323365e-38
47.520466 33.041164 72.239243 2.3506274e-38
48.474766 32.930843 71.998047 2.0557479e-38
49.753857 33.041164 72.239243 1.4465349e-38
50.955906 33.0966 72.360451 5.4384744e-39
51.130783 32.496826 71.049141 5.3473577e-39
52.143177 32.443378 70.932281 5.714334e-39
54.494476 33.208038 72.604088 6.2668071e-39
55.804707 33.320225 72.849373 6.6388771e-39
58.108711 34.009609 74.356598 2.1488429e-38
57.282864 32.875957 71.878044 2.3509168e-38
57.53101 32.390106 70.815811 2.341805e-38
-56.851406 33.158115 70.124924 5.7121648e-39
-56.409454 33.539871 70.932281 5.5277735e-39
-56.426647 34.215168 72.360451 5.0675198e-39
-57.129318 35.341839 74.743202 4.3310366e-39
-55.877075 35.280693 74.613892 3.4094432e-39
-55.394539 35.713207 75.528595 2.3963731e-39
-54.60955 35.965153 76.061424 3.0417425e-39
-53.622917 36.092461 76.330666 2.2123434e-39
-52.350323 36.028694 76.195808 3.1342997e-39
-51.720741 36.414715 77.012192 3.3186895e-39
-50.802422 36.610844 77.426979 3.6871119e-39
-49.428055 36.479858 77.149963 3.7793048e-39
-48.408646 36.610844 77.426979 4.0551658e-39
-47.381889 36.742775 77.705994 3.1342983e-39
-46.856091 37.280148 78.842461 3.5016417e-39
-45.637321 37.280148 78.842461 3.8715032e-39
-44.499905 37.348427 78.986862 4.1480901e-39
-43.278904 37.348427 78.986862 4.1477328e-39
-42.446609 37.693607 79.716873 4.2402857e-39
-40.911831 37.416954 79.131798 4.0548155e-39
-39.615902 37.348427 78.986862 4.0548127e-39
-38.465351 37.416954 79.131798 4.0548155e-39
-37.586941 37.763409 79.864494 3.77823e-39
-36.018867 37.416954 79.131798 3.3186909e-39
-34.859589 37.485737 79.27726 3.9622569e-39
-33.572384 37.416954 79.131798 2.8573513e-39
-32.172047 37.21212 78.698593 3.224689e-39
-30.675615 36.87566 77.98703 3.9622653e-39
-29.57704 37.00951 78.270103 5.0671555e-39
-28.16267 36.742775 77.705994 4.9767732e-39
-26.912977 36.676693 77.566238 4.0544609e-39
-25.760267 36.742775 77.705994 4.9764172e-39
-24.470882 36.610844 77.426979 4.2392039e-39
-23.149313 36.414715 77.012192 4.7001863e-39
-22.037542 36.545235 77.288223 3.594559e-39
-20.76836 36.414715 77.012192 4.7931022e-39
-19.612907 36.479858 77.149963 4.9774934e-39
-18.420301 36.479858 77.149963 3.594559e-39
-17.196932 36.414715 77.012192 3.8704256e-39
-15.949493 36.285126 76.738129 4.7001849e-39
-14.710901 36.156456 76.466003 4.1473614e-39
-13.386459 35.77586 75.661102 4.2388438e-39
-12.174152 35.650772 75.396553 3.8715032e-39
-11.02793 35.713207 75.528595 4.423235e-39
-9.7747946 35.403194 74.872963 4.7923819e-39
-8.5875692 35.280693 74.613892 4.7934707e-39
-7.4859729 35.52655 75.13385 4.7012765e-39
-6.2807641 35.280693 74.613892 4.8856663e-39
-5.0833874 34.978115 73.973976 4.7931078e-39
-3.939877 34.978115 73.973976 4.2399312e-39
-2.7678804 34.621799 73.220421 3.7782286e-39
-1.6277279 34.446354 72.849373 3.77823e-39
-0.48441803 33.266296 70.353714 4.6076375e-39
0.59824991 32.997154 69.784508 1.0320153e-38
1.698992 33.429905 70.699715 4.5154307e-39
2.8670905 34.330372 72.604088 4.0548127e-39
3.9961526 34.388264 72.726524 4.7009121e-39
5.1290288 34.446354 72.849373 4.8853006e-39
6.2551551 34.446354 72.849373 5.3459256e-39
7.4063025 34.563122 73.096321 5.8072569e-39
8.4645128 34.272675 72.482063 6.6366658e-39
9.6335335 34.446354 72.849373 7.3749497e-39
10.75966 34.446354 72.849373 8.2021965e-39
11.946324 34.621799 73.220421 9.0326732e-39
13.078187 34.621799 73.220421 1.3272603e-38
14.161961 34.504639 72.972633 2.3416245e-38
15.315907 34.563122 73.096321 2.3234379e-38
16.390291 34.446354 72.849373 2.3509146e-38
17.486877 34.388264 72.726524 2.3509883e-38
18.611105 34.388264 72.726524 2.3509527e-38
20.005217 34.858532 73.721077 2.3326195e-38
20.894794 34.446354 72.849373 2.146969e-38
22.437841 35.098522 74.228622 2.3497285e-38
23.625952 35.159035 74.356598 2.3228955e-38
24.314245 34.504639 72.972633 2.1841704e-38
25.356468 34.388264 72.726524 2.3503036e-38
26.525425 34.446354 72.849373 2.3509859e-38
27.698339 34.504639 72.972633 1.8520478e-38
28.680784 34.330372 72.604088 1.3631256e-38
29.455994 33.930519 71.758446 1.27111e-38
30.065006 33.375191 70.584007 8.9357762e-39
30.507029 32.679874 69.11351 2.1940765e-38
31.575403 32.679874 69.11351 2.3031593e-38
33.175438 33.21212 70.239136 9.1248576e-39
34.37318 33.320656 70.468674 9.8602633e-39
35.346992 33.21212 70.239136 1.0140828e-38
37.097378 33.817978 71.520447 9.5905427e-39
38.139709 33.76199 71.402031 1.4663092e-38
38.985283 33.539871 70.932281 1.5761514e-38
40.081776 33.539871 70.932281 1.3277297e-38
41.519711 33.817978 71.520447 1.3640646e-38
42.414276 33.650562 71.166382 1.1611274e-38
44.244495 34.215168 72.360451 8.0239037e-39
45.5158 34.330372 72.604088 7.6515478e-39
46.481632 34.215168 72.360451 1.0144102e-38
47.520466 34.157856 72.239243 1.6222493e-38
48.718769 34.215168 72.360451 2.0554616e-38
49.587734 34.043808 71.998047 1.6033045e-38
50.531979 33.930519 71.758446 1.2713649e-38
51.046688 33.539871 70.932281 6.4515529e-39
52.057556 33.484795 70.815811 5.8083275e-39
53.23967 33.539871 70.932281 4.7005562e-39
54.336163 33.539871 70.932281 4.6094438e-39
55.432652 33.539871 70.932281 5.2555363e-39
56.809452 33.706184 71.284012 1.4386471e-38
57.53101 33.484795 70.815811 2.2040518e-38
-56.689171 34.808113 71.284012 4.792012e-39
-56.712112 35.512493 72.726524 4.2392039e-39
-55.776001 35.632668 72.972633 3.2261338e-39
-56.26646 36.687992 75.13385 2.5807644e-39
-54.629158 36.37117 74.485023 2.6733201e-39
-53.477749 36.37117 74.485023 2.3967332e-39
-53.433773 37.14093 76.061424 2.4889303e-39
-51.710789 36.752022 75.264969 3.1342997e-39
-50.371506 36.624187 75.003181 3.5023633e-39
-49.818573 37.075542 75.927513 3.7796719e-39
-48.989861 37.33849 76.466003 4.4250413e-39
-47.977962 37.471367 76.738129 5.8061695e-39
-47.296669 37.875732 77.566238 3.1339354e-39
-46.600513 38.288921 78.412415 4.6079906e-39
-45.471066 38.358665 78.555244 4.332124e-39
-44.096096 38.219433 78.270103 4.4243196e-39
-43.438019 38.711227 79.27726 4.1477328e-39
-42.057903 38.569427 78.986862 4.6079864e-39
-40.762245 38.498917 78.842461 4.9767689e-39
-39.543476 38.498917 78.842461 4.6079892e-39
-38.465351 38.640198 79.131798 4.7001849e-39
-37.242107 38.640198 79.131798 4.3314023e-39
-35.497799 38.081207 77.98703 4.0555371e-39
-34.6684 38.498917 78.842461 4.4235952e-39
-32.967476 37.943977 77.705994 4.1480985e-39
-31.482647 37.60519 77.012192 4.4232322e-39
-30.29217 37.60519 77.012192 3.8715032e-39
-28.946623 37.404808 76.60183 5.2529957e-39
-27.81189 37.471367 76.738129 7.0047071e-39
-26.720741 37.60519 77.012192 4.5157936e-39
-25.439411 37.471367 76.738129 4.5165153e-39
-24.25317 37.471367 76.738129 4.2402857e-39
-23.066931 37.471367 76.738129 3.8711487e-39
-21.68774 37.14093 76.061424 3.5023633e-39
-20.58457 37.272404 76.330666 4.1477328e-39
-19.439034 37.33849 76.466003 4.3314023e-39
-18.224688 37.272404 76.330666 4.423598e-39
-16.895231 36.945454 75.661102 3.7789502e-39
-15.836776 37.206551 76.195808 4.0551686e-39
-14.47984 36.752022 75.264969 4.699466e-39
-13.178379 36.37117 74.485023 4.7001821e-39
-11.903616 35.998131 73.721077 3.8715032e-39
-10.654735 35.632668 72.972633 4.2392067e-39
-9.5267038 35.632668 72.972633 4.5165209e-39
-8.3703461 35.512493 72.726524 4.7012751e-39
-7.2339196 35.452705 72.604088 4.7927532e-39
-6.0203676 34.923561 71.520447 4.8856663e-39
-4.9229484 34.981575 71.639252 4.9771431e-39
-3.8669164 35.452705 72.604088 5.1618875e-39
-2.7353718 35.333736 72.360451 3.409446e-39
-1.5796967 34.5228 70.699715 4.332124e-39
-0.47209579 33.47998 68.564117 5.5245477e-39
0.58966255 33.586773 68.782822 2.2756822e-38
1.6769986 34.075901 69.784508 4.8824125e-39
2.7873187 34.466297 70.584007 4.423598e-39
3.9693778 35.274551 72.239243 4.5168838e-39
5.1031685 35.393124 72.482063 4.6087165e-39
6.2340941 35.452705 72.604088 5.3452025e-39
7.368834 35.512493 72.726524 5.3451997e-39
8.4503107 35.333736 72.360451 6.3586356e-39
9.5528507 35.274551 72.239243 6.2671616e-39
10.633921 35.156773 71.998047 9.5865504e-39
11.727308 35.098179 71.878044 8.5706035e-39
12.774548 34.923561 71.520447 9.3081699e-39
13.949531 35.098179 71.878044 9.9521226e-39
15.111012 35.215565 72.118439 1.3730697e-38
16.171753 35.098179 71.878044 2.3138942e-38
17.225447 34.981575 71.639252 2.350988e-38
18.332867 34.981575 71.639252 2.3325856e-38
19.343887 34.808113 71.284012 2.3509168e-38
20.547705 34.981575 71.639252 2.3509524e-38
21.727308 35.098179 71.878044 2.3234376e-38
23.186213 35.632668 72.972633 2.341805e-38
23.949532 35.098179 71.878044 2.3509883e-38
24.812517 34.750671 71.166382 2.2867036e-38
25.742708 34.5228 70.699715 2.341769e-38
27.102184 34.865742 71.402031 2.3505543e-38
28.393976 35.098179 71.878044 2.350553e-38
28.926556 34.409981 70.468674 2.3506594e-38
29.438652 33.748249 69.11351 2.0918998e-38
30.216484 33.426838 68.455284 2.3505923e-38
31.07737 33.215942 68.023392 2.3125947e-38
31.827686 32.904545 67.385666 1.1694437e-38
34.205505 34.242126 70.124924 1.032484e-38
35.118206 34.075901 69.784508 1.4471829e-38
36.022091 33.911285 69.447388 8.3876583e-39
37.457539 34.242126 70.124924 9.4958094e-39
38.230728 33.965981 69.559402 1.1426866e-38
38.99155 33.694252 69.002922 1.3825777e-38
41.178265 34.63636 70.932281 1.9728828e-38
42.205341 34.579487 70.815811 1.4381467e-38
43.30003 34.579487 70.815811 1.3088919e-38
44.614498 34.750671 71.166382 6.0845626e-39
45.489414 34.579487 70.815811 5.8069192e-39
46.431618 34.466297 70.584007 6.6352337e-39
47.757214 34.63636 70.932281 8.2969158e-39
47.601044 33.748249 69.11351 2.1853615e-38
48.053352 33.321056 68.238655 1.2257714e-38
50.058685 33.965981 69.559402 1.3270776e-38
50.887726 33.802422 69.224442 1.383229e-38
51.54414 33.533291 68.673294 5.5303295e-39
52.190182 33.268417 68.130852 4.5186733e-39
52.252796 32.649467 66.863297 4.6097955e-39
56.068058 34.353848 70.353714 1.0145484e-38
57.248997 34.409981 70.468674 8.7575479e-39
-56.917385 34.705391 68.8927 5.4359394e-39
-57.505947 35.732853 70.932281 4.5154279e-39
-57.738972 36.575039 72.604088 4.5157908e-39
-56.33213 36.391247 72.239243 3.3172504e-39
-55.681782 36.698605 72.849373 2.8573513e-39
-55.020355 37.0112 73.469894 2.5811245e-39
-53.610649 36.823006 73.096321 2.4889303e-39
-52.391903 36.7607 72.972633 2.7655158e-39
-51.525425 36.948254 73.344948 2.949907e-39
-50.823811 37.265137 73.973976 3.0413852e-39
-49.341763 37.0112 73.469894 3.5949163e-39
-48.370853 37.137733 73.721077 3.3179721e-39
-48.644863 38.249249 75.927513 3.7789502e-39
-47.554878 38.316708 76.061424 3.8718633e-39
-46.625797 38.520523 76.466003 3.7782286e-39
-46.264046 39.215839 77.84626 3.8715032e-39
-44.89859 39.074772 77.566238 4.5172369e-39
-43.542919 38.934719 77.288223 4.4243196e-39
-42.196934 38.79567 77.012192 4.4243224e-39
-41.153431 38.934719 77.288223 4.3324813e-39
-39.887207 38.86507 77.149963 4.0548155e-39
-38.488045 38.657604 76.738129 3.8715032e-39
-37.569202 38.934719 77.288223 4.4235994e-39
-36.309391 38.86507 77.149963 3.8704242e-39
-35.116783 38.86507 77.149963 3.5938373e-39
-33.683155 38.588943 76.60183 3.3179721e-39
-32.326763 38.384407 76.195808 3.5956408e-39
-31.148909 38.384407 76.195808 3.1343025e-39
-29.708609 38.04829 75.528595 4.6079892e-39
-28.244278 37.652641 74.743202 5.2551509e-39
-27.135906 37.71801 74.872963 4.7001849e-39
-26.069016 37.849434 75.13385 5.3462759e-39
-24.951044 37.915485 75.264969 3.4101677e-39
-23.870897 38.04829 75.528595 3.7789502e-39
-22.624111 37.915485 75.264969 4.7001821e-39
-21.423256 37.849434 75.13385 4.3314023e-39
-20.121595 37.587498 74.613892 5.6232202e-39
-18.870251 37.393414 74.228622 4.6076263e-39
-17.784021 37.522579 74.485023 4.1470083e-39
-16.603933 37.457886 74.356598 5.2540803e-39
-15.588896 37.783607 75.003181 4.2395598e-39
-13.897736 36.391247 72.239243 3.8697067e-39
-13.065551 37.201324 73.847305 3.5016389e-39
-11.743027 36.636719 72.726524 3.4101677e-39
-10.4427 36.029144 71.520447 4.2392067e-39
-9.3062506 35.910042 71.284012 3.5945646e-39
-8.1504354 35.674179 70.815811 4.2402857e-39
-7.0441775 35.615696 70.699715 3.9626212e-39
-5.9318328 35.499306 70.468674 3.3183294e-39
-4.8110633 35.268791 70.011086 3.5023661e-39
-3.7288122 35.268791 70.011086 3.5023689e-39
-2.6508644 35.326138 70.124924 3.5016417e-39
-1.5467334 34.872509 69.224442 3.6863833e-39
-0.46470773 33.999332 67.491127 7.5567906e-39
0.57768506 33.946209 67.385666 2.1282771e-38
1.6529268 34.65004 68.782822 4.6980241e-39
2.7827644 35.499306 70.468674 3.8704242e-39
3.8847845 35.615696 70.699715 4.239934e-39
4.9776807 35.615696 70.699715 4.0555399e-39
6.0905457 35.732853 70.932281 4.8842216e-39
7.1284151 35.441395 70.353714 5.0689688e-39
8.2563696 35.615696 70.699715 5.8061779e-39
9.3800192 35.732853 70.932281 9.5854799e-39
10.476511 35.732853 70.932281 7.7422861e-39
11.573002 35.732853 70.932281 9.3081727e-39
12.732317 35.910042 71.284012 8.2951082e-39
13.765985 35.732853 70.932281 9.9521072e-39
14.838071 35.674179 70.815811 1.3086036e-38
15.985259 35.791721 71.049141 1.4468254e-38
17.027452 35.674179 70.815811 1.7600403e-38
18.181854 35.791721 71.049141 2.2951688e-38
19.185331 35.615696 70.699715 2.3509886e-38
20.278227 35.615696 70.699715 2.3509886e-38
21.441423 35.732853 70.932281 2.3418047e-38
22.537914 35.732853 70.932281 2.3509527e-38
23.518362 35.557404 70.584007 2.3418047e-38
24.489227 35.383671 70.239136 2.341805e-38
25.700577 35.557404 70.584007 2.2949511e-38
26.835604 35.615696 70.699715 2.3500525e-38
27.791821 35.441395 70.353714 2.3411188e-38
28.461498 34.928577 69.335739 2.3418022e-38
29.39155 34.760918 69.002922 2.2865182e-38
29.931423 34.159706 67.809479 2.341769e-38
30.50008 33.63092 66.759796 2.3508079e-38
31.33803 33.423962 66.348969 2.2018523e-38
32.818073 33.893253 67.28054 9.2145197e-39
34.614117 34.65004 68.782822 1.7328471e-38
35.620571 34.594864 68.673294 1.216553e-38
36.740646 34.65004 68.782822 9.4014768e-39
38.1078 34.928577 69.335739 1.0233014e-38
38.682095 34.485039 68.455284 1.5855893e-38
40.122414 34.816624 69.11351 2.0280209e-38
41.323235 34.928577 69.335739 2.2586867e-38
41.724239 34.375908 68.238655 1.2164448e-38
43.258217 34.760918 69.002922 1.4101641e-38
43.973099 34.485039 68.455284 6.1763939e-39
44.747192 34.267467 68.023392 5.9005343e-39
46.0895 34.485039 68.455284 5.9012588e-39
46.850239 34.267467 68.023392 9.9589231e-39
47.60144 34.052624 67.596909 9.2170519e-39
49.578892 34.705391 68.8927 7.1934424e-39
50.322304 34.485039 68.455284 1.0603951e-38
51.462193 34.539864 68.564117 1.1614854e-38
51.298737 33.735363 66.967125 7.9266634e-39
51.298405 33.067844 65.642052 1.1059871e-38
51.606186 32.620983 64.754997 6.1764052e-39
53.572456 33.219532 65.943161 4.9785668e-39
-61.312412 37.82473 72.849373 5.2515468e-39
-56.11068 35.263371 67.916267 4.5154251e-39
-57.505947 36.829342 70.932281 4.2392039e-39
-56.502388 36.890018 71.049141 2.9495441e-39
