# .PCD v0.7 - Point Cloud Data file format
VERSION 0.7
FIELDS x y z rgb
SIZE 4 4 4 4
TYPE F F F F
COUNT 1 1 1 1
WIDTH 1073
HEIGHT 1
VIEWPOINT 0 0 0 1 0 0 0
POINTS 1073
DATA ascii
-225.17206 -168.22591 245.03879 1.3464565e-38
-66.598656 -55.341606 80.610893 4.3299548e-39
-62.393845 -54.930908 80.012665 3.226847e-39
-59.232738 -55.445244 80.761848 5.5281351e-39
-56.981312 -56.938 82.936211 3.8693326e-39
-66.259666 -71.001823 103.42165 4.8831286e-39
-63.598717 -73.468391 107.01446 5.5274162e-39
-59.672428 -74.767075 108.90613 6.3564524e-39
-56.475933 -77.304855 112.60268 7.2780485e-39
-53.634651 -80.895523 117.83286 9.4874927e-39
-54.247021 -91.1008 132.69794 1.0315455e-38
-54.271812 -102.80473 149.74593 1.1883148e-38
-50.296242 -109.25373 159.13959 2.2958873e-38
-43.075119 -109.65837 159.72899 2.3509886e-38
-37.61829 -115.65531 168.46417 2.3509886e-38
-32.889145 -127.61966 185.89149 2.3509886e-38
-23.656647 -124.40235 181.20515 2.3509886e-38
-14.817476 -120.848 176.02786 2.3509886e-38
-7.2456961 -131.59004 191.67479 2.3509886e-38
1.5799932 -126.52889 184.30269 2.341805e-38
11.177917 -139.65924 203.42844 2.3509527e-38
20.808184 -140.98933 205.36584 2.3416971e-38
32.170296 -149.53415 217.81226 1.2618665e-38
41.230141 -145.85103 212.44743 7.9230774e-39
52.109138 -148.78271 216.71773 7.7393896e-39
64.091805 -153.40808 223.45506 5.712176e-39
75.630096 -155.83032 226.98331 6.0791494e-39
86.156418 -155.83032 226.98331 4.7891295e-39
96.176537 -155.01445 225.79491 4.1452034e-39
102.87737 -149.53415 217.81226 7.7382994e-39
97.684364 -129.29153 188.32677 1.1975693e-38
97.478874 -118.43104 172.50731 8.0145234e-39
96.947495 -108.85206 158.55452 7.1844082e-39
94.565727 -98.692535 143.75609 7.4617125e-39
95.202881 -92.814293 135.19382 8.6580949e-39
99.293617 -90.82135 132.29088 8.3847478e-39
105.42859 -90.82135 132.29088 7.0925755e-39
-68.126732 -52.787304 82.460472 1.5945503e-38
-63.333866 -51.992016 81.218132 3.962617e-39
-59.567387 -51.992016 81.218132 5.6221285e-39
-57.091103 -53.194141 83.096008 6.173859e-39
-66.418945 -66.364807 103.67026 6.1749464e-39
-64.886787 -69.893066 109.18185 8.7546682e-39
-63.865627 -74.61557 116.559 7.1876564e-39
-59.752159 -76.264534 119.13488 5.0671569e-39
-54.227299 -76.264534 119.13488 7.0014589e-39
-54.75243 -85.738388 133.93425 1.040837e-38
-54.843094 -96.869331 151.3222 1.077824e-38
-50.482525 -102.25096 159.72899 1.6507373e-38
-43.235249 -102.63108 160.32278 2.3509886e-38
-35.536095 -101.87366 159.13959 2.3509886e-38
-29.689812 -107.42319 167.80867 2.3509886e-38
-30.766567 -150.86208 235.66573 2.3509886e-38
-15.382549 -116.98203 182.7408 2.3509886e-38
-6.8788252 -116.48844 181.96974 2.3509886e-38
1.6287155 -121.62009 189.98602 2.3509886e-38
10.870268 -126.64111 197.82948 2.3509886e-38
23.243183 -146.84979 229.39803 2.3509886e-38
32.170296 -139.43314 217.81226 2.3509527e-38
43.592285 -143.79042 224.6189 2.3509883e-38
54.008953 -143.79042 224.6189 2.3234374e-38
66.148232 -147.63509 230.62476 2.3498047e-38
81.646126 -156.86227 245.03879 9.1173032e-39
94.078842 -158.66528 247.85533 5.0657164e-39
97.194283 -146.0728 228.18428 9.3045433e-39
98.882133 -134.01825 209.35353 9.5786093e-39
98.112801 -121.08667 189.15276 1.2250479e-38
99.063896 -112.22667 175.3123 9.1201549e-39
96.947495 -101.49911 158.55452 9.6718839e-39
94.251556 -91.720131 143.2785 7.6453849e-39
94.905373 -86.274254 134.77133 1.1423955e-38
99.599136 -84.946953 132.69794 6.6337637e-39
106.07938 -85.209137 133.1075 7.7379449e-39
-221.39822 -143.06012 240.93201 1.8079036e-38
-62.86034 -47.864971 80.610893 4.3331974e-39
-60.019512 -48.591576 81.834587 4.6079864e-39
-58.790241 -50.809048 85.569099 6.3578985e-39
-68.054886 -63.073299 106.22372 6.4519018e-39
-63.75692 -63.700897 107.28067 2.3509886e-38
-65.457848 -70.935623 119.4649 2.3509886e-38
-60.75922 -71.931908 121.14278 6.1749464e-39
-57.566811 -75.096069 126.47163 6.8181578e-39
-59.966946 -87.101227 146.6899 6.5408464e-39
-56.022514 -91.784088 154.57645 7.8308664e-39
-51.049744 -95.909218 161.5237 1.3547399e-38
-43.722862 -96.269775 162.13094 2.3509886e-38
-36.47834 -96.999092 163.35919 2.3509886e-38
-29.123213 -97.73954 164.60622 2.3509886e-38
-22.887323 -104.09659 175.3123 2.3509886e-38
-17.971691 -126.77109 213.49915 2.3509886e-38
-7.1191335 -111.82428 188.32677 2.3509886e-38
1.6005127 -110.8561 186.69623 2.3509886e-38
11.848593 -128.0388 215.63414 2.3509886e-38
20.419245 -119.66243 201.52724 2.3509886e-38
30.771587 -123.70898 208.34216 2.3509886e-38
44.284225 -135.4908 228.18428 2.3509886e-38
55.158077 -136.21149 229.39803 2.3509886e-38
67.22673 -139.17261 234.38493 2.3509886e-38
80.72876 -143.86382 242.28555 2.3509883e-38
91.964714 -143.86382 242.28555 2.3506287e-38
95.675621 -133.37375 224.6189 1.3358985e-38
98.404442 -123.70898 208.34216 1.0132862e-38
96.421204 -110.37827 185.89149 1.1144852e-38
96.705231 -101.6181 171.1382 1.0317253e-38
96.592377 -93.801323 157.97372 1.1606546e-38
94.565727 -85.3592 143.75609 8.1060001e-39
95.803528 -80.781578 136.04678 6.4482823e-39
95.205055 -75.31694 126.84361 1.4012693e-38
98.480568 -73.374672 123.57257 5.1629693e-39
-221.39822 -131.88693 240.93201 8.7603757e-39
-62.163185 -43.637264 79.716873 5.2533558e-39
-59.905838 -44.711666 81.679596 4.4235952e-39
-56.871944 -45.312401 82.777023 6.7266782e-39
-69.422821 -59.315979 108.35886 5.8983623e-39
-65.718674 -60.532719 110.58161 1.8905187e-38
-61.449665 -67.067497 122.51939 8.7549849e-39
-57.906437 -69.639412 127.21778 6.728123e-39
-62.51873 -83.715462 152.93201 4.6983772e-39
-59.205612 -89.423332 163.35919 5.4377513e-39
-51.241661 -88.750977 162.13094 2.3509527e-38
-45.43079 -92.217812 168.46417 2.3509886e-38
-37.61829 -92.217812 168.46417 2.3509886e-38
-30.278896 -93.681587 171.1382 2.3509886e-38
-23.362165 -97.957512 178.94949 2.3509886e-38
-15.783834 -102.64243 187.50795 2.3509886e-38
-7.7632456 -112.41791 205.36584 2.3509886e-38
1.6005127 -102.1981 186.69623 2.3509886e-38
10.771447 -107.308 196.03104 2.3509886e-38
20.51511 -110.83456 202.47337 2.3509886e-38
29.626598 -109.80354 200.5899 2.3509886e-38
42.058887 -118.63196 216.71773 2.3509886e-38
54.577465 -124.25137 226.98331 2.3509886e-38
59.757095 -114.04715 208.34216 2.3509886e-38
79.831772 -131.15422 239.59349 2.3509886e-38
81.038216 -116.8701 213.49915 2.3509886e-38
89.608383 -115.15981 210.37477 2.3509168e-38
95.632484 -110.83456 202.47337 1.3263539e-38
95.597092 -100.88786 184.30269 1.1790941e-38
97.090515 -94.054825 171.82004 1.2343751e-38
95.889885 -85.846397 156.82483 1.3449373e-38
94.882004 -78.955719 144.23688 7.0014589e-39
94.905373 -73.774254 134.77133 7.4638789e-39
93.5541 -68.230522 124.64401 1.7430071e-38
96.004799 -65.943466 120.466 6.8170704e-39
-230.40862 -125.62651 250.73737 2.3509886e-38
-66.848557 -40.539886 80.913376 2.3418045e-38
-62.86034 -40.388336 80.610893 1.1152057e-38
-60.363132 -41.236183 82.303108 4.3324785e-39
-59.618275 -43.476379 86.7743 6.6352015e-39
-56.273487 -44.00766 87.834679 4.514702e-39
-66.745529 -56.27021 112.30945 7.1876732e-39
-65.82251 -60.188747 120.13044 2.3509883e-38
-61.977886 -61.913353 123.57257 1.6034097e-38
-57.398487 -63.180584 126.10184 5.5299427e-39
-65.056389 -79.733429 159.13959 6.0820263e-39
-60.582489 -83.751007 167.15825 5.6217726e-39
-54.521126 -86.431038 172.50731 2.2958873e-38
-45.969494 -85.406166 170.46178 2.3509886e-38
-38.367657 -86.086693 171.82004 2.3509886e-38
-31.660919 -89.658752 178.94949 2.3509886e-38
-22.4314 -86.086693 171.82004 2.3509886e-38
-15.647766 -93.136894 185.89149 2.3509886e-38
-6.9670153 -92.340858 184.30269 2.3509886e-38
1.6805383 -98.217094 196.03104 2.3509886e-38
10.771447 -98.217094 196.03104 2.3509886e-38
19.165432 -94.770874 189.15276 2.3509886e-38
28.953266 -98.217094 196.03104 2.3509886e-38
37.364815 -96.463211 192.53049 2.3509886e-38
51.082359 -106.44217 212.44743 2.3509886e-38
68.720657 -120.04311 239.59349 2.3509886e-38
74.070717 -111.3802 222.30324 2.3509886e-38
78.700569 -103.88346 207.34052 2.3509886e-38
87.474854 -102.8941 205.36584 2.3509886e-38
93.439079 -99.118164 197.82948 2.350594e-38
94.786942 -91.558304 182.7408 2.0358243e-38
94.823807 -84.076889 167.80867 7.0014589e-39
95.542458 -78.288986 156.25662 8.2900397e-39
95.200401 -72.509262 144.7209 8.6627865e-39
94.315895 -67.104843 133.93425 7.9223277e-39
94.37236 -62.996384 125.73419 8.1053093e-39
95.471443 -60.021557 119.79675 7.8330146e-39
-246.15082 -121.78733 267.8685 2.2591529e-38
-235.18927 -122.5485 269.54266 1.1804594e-38
-63.134296 -39.137245 86.08149 4.6998191e-39
-59.738472 -39.531773 86.949249 6.2678637e-39
-57.324238 -40.68 89.474747 6.1735031e-39
-66.9198 -51.195194 112.60268 5.8990812e-39
-64.038704 -53.137562 116.87487 8.7484969e-39
-63.431911 -57.500763 126.47163 2.3509879e-38
-58.250095 -58.183266 127.97279 4.7927336e-39
-68.334427 -75.999069 167.15825 6.8188739e-39
-60.11647 -75.414459 165.87242 5.6217782e-39
-54.303913 -78.118568 171.82004 1.5573207e-38
-46.521126 -78.431038 172.50731 2.3509886e-38
-39.468369 -80.359673 176.7493 2.3509886e-38
-30.159216 -77.50103 170.46178 2.3509886e-38
-22.521128 -78.431038 172.50731 2.341805e-38
-15.253284 -82.385544 181.20515 2.3509886e-38
1.7689878 -93.817032 206.34846 2.3509886e-38
12.029028 -99.531776 218.91791 2.3509886e-38
21.212225 -95.183304 209.35353 2.3509886e-38
29.904781 -92.055214 202.47337 2.3509886e-38
40.239033 -94.268074 207.34052 2.3509886e-38
54.291721 -102.65843 225.79491 2.3509886e-38
61.236233 -97.068115 213.49915 2.3509886e-38
82.112679 -112.04434 246.43901 2.3509886e-38
88.965866 -106.56391 234.38493 2.3509883e-38
93.723053 -100.03959 220.03484 2.341805e-38
97.931343 -94.268074 207.34052 2.3509866e-38
93.597153 -82.04084 180.44698 2.3507351e-38
91.272354 -73.437302 161.5237 2.3418042e-38
95.889885 -71.300949 156.82483 1.1237777e-38
93.939468 -64.926361 142.80406 1.0044634e-38
94.905373 -61.27425 134.77133 6.1734919e-39
93.284492 -56.506512 124.28481 8.5673538e-39
96.544151 -55.077976 121.14278 9.3971019e-39
-371.69894 -157.21214 385.06097 5.9905551e-39
-252.42218 -112.15134 274.69318 2.341769e-38
-235.18927 -110.0485 269.54266 2.350988e-38
-64.158791 -35.715538 87.478355 4.1480873e-39
-60.101994 -35.715538 87.478355 4.4235952e-39
-57.803936 -36.836319 90.223488 6.4508102e-39
-67.094978 -46.093613 112.89745 5.437387e-39
-63.994919 -52.093964 127.59416 1.0958647e-38
-58.7733 -52.717846 129.12224 4.4232294e-39
-68.070587 -67.983627 166.51285 7.3713288e-39
-61.77977 -69.595886 170.46178 4.976406e-39
-55.183327 -71.286476 174.60254 8.8468274e-39
-48.459507 -73.365669 179.69511 2.3509886e-38
-38.675831 -70.713898 173.20012 2.3509527e-38
29.765039 -82.279251 201.52724 2.3509886e-38
46.498436 -97.820892 239.59349 2.3509886e-38
51.848595 -88.038803 215.63414 2.2316021e-38
60.635876 -86.312546 211.40602 2.3509527e-38
80.72876 -98.919998 242.28555 2.3509886e-38
86.156418 -92.672424 226.98331 2.3509886e-38
94.68927 -90.76165 222.30324 2.3509886e-38
96.08358 -83.055473 203.42844 2.3418039e-38
92.056458 -72.459915 177.47665 2.3509886e-38
89.925163 -64.973282 159.13959 2.3509883e-38
95.542458 -63.79623 156.25662 2.3234374e-38
93.321442 -57.920261 141.86456 2.3503379e-38
92.590607 -53.682194 131.48424 1.5204021e-38
93.016434 -50.597012 123.92767 1.3092532e-38
94.422302 -48.372967 118.48029 7.277694e-39
-225.17206 -88.680458 245.03879 1.4564681e-38
-235.18927 -97.5485 269.54266 2.1022012e-38
-224.08983 -98.16201 271.23792 2.3509866e-38
-64.949242 -32.04879 88.556114 4.4228791e-39
-60.967659 -32.114731 88.738327 4.0544469e-39
-58.663021 -33.137493 91.564392 5.9905551e-39
-64.559906 -39.314259 108.63181 3.7782258e-39
-63.618477 -45.905178 126.84361 2.3142495e-38
-59.666512 -47.439999 131.08458 4.3310366e-39
-60.794075 -53.819862 148.7132 6.5422856e-39
-60.582489 -60.495193 167.15825 4.6076235e-39
-55.861813 -63.966228 176.7493 5.253709e-39
-48.25843 -64.762489 178.94949 2.3418043e-38
35.585018 -87.194191 240.93201 2.3509886e-38
41.43425 -77.266136 213.49915 2.350988e-38
70.065666 -105.45784 291.39749 2.3509883e-38
58.62426 -73.970428 204.39255 2.3509883e-38
79.390709 -86.230721 238.26976 2.3509886e-38
85.258949 -81.290413 224.6189 2.3509886e-38
92.77636 -78.827072 217.81226 2.350988e-38
89.340874 -68.455086 189.15276 2.3509886e-38
93.207161 -65.032333 179.69511 2.3509883e-38
89.594559 -57.38147 158.55452 2.3509886e-38
92.85112 -54.956902 151.85503 2.3509876e-38
93.015472 -51.172985 141.39943 2.3418042e-38
92.029449 -47.296242 130.68736 2.3509876e-38
92.749908 -44.721375 123.57257 1.2247975e-38
93.395973 -42.412392 117.19247 7.9223362e-39
-218.78072 -79.114883 250.73737 8.3930197e-39
-210.83008 -80.519287 255.18832 8.9458235e-39
-66.730553 -28.708355 90.984871 6.0856164e-39
-63.043152 -28.952681 91.759209 3.9629701e-39
-59.29245 -29.201202 92.546844 6.2660546e-39
-56.330292 -29.907166 94.784241 3.6856672e-39
-65.277023 -37.590496 119.13488 5.6206936e-39
-60.587292 -41.99926 133.1075 4.4221532e-39
-55.441139 -42.791698 135.61896 6.7270412e-39
-59.886139 -52.137012 165.23689 4.7912889e-39
-54.088421 -53.999046 171.1382 4.2402801e-39
32.333595 -69.074921 218.91791 2.3509886e-38
61.542049 -100.05706 317.10904 2.3509886e-38
56.976475 -74.767914 236.96059 2.3509886e-38
51.11454 -56.230412 178.21004 2.3509886e-38
78.954498 -74.767914 236.96059 2.3509886e-38
77.951042 -64.798859 205.36584 2.3509883e-38
96.682732 -71.619789 226.98331 2.3509886e-38
89.734444 -59.946079 189.98602 2.3509886e-38
89.122383 -54.214184 171.82004 2.3509886e-38
89.594559 -50.02853 158.55452 2.3509883e-38
96.947495 -50.02853 158.55452 2.1750213e-38
89.212952 -42.791698 135.61896 2.2281744e-38
90.38607 -40.499287 128.35365 2.3509165e-38
91.959427 -38.658409 122.51939 2.3509886e-38
91.897644 -36.384384 115.31238 2.2755721e-38
-218.78072 -67.486977 250.73737 7.6536456e-39
-222.68927 -72.5485 269.54266 6.0859766e-39
-69.061752 -25.344454 94.163383 1.2725493e-38
-63.721039 -24.962925 92.745865 3.6871091e-39
-59.41996 -24.962925 92.745865 6.5426499e-39
-56.956184 -25.795021 95.837395 5.8043576e-39
-64.387688 -31.628773 117.5118 5.5285008e-39
-60.587292 -35.82642 133.1075 5.5266833e-39
-55.616032 -36.617538 136.04678 6.1738702e-39
-59.886139 -44.474174 165.23689 4.2373948e-39
-55.861813 -47.572784 176.7493 4.5143489e-39
2.5323181 -79.505203 295.38922 2.3509886e-38
59.359707 -82.324539 305.86401 2.3509886e-38
60.289062 -67.486977 250.73737 2.3509886e-38
55.719452 -52.287205 194.26498 2.3509883e-38
80.72876 -65.212135 242.28555 2.3509886e-38
73.737473 -52.287205 194.26498 2.3509886e-38
69.05909 -43.638195 162.13094 2.3509886e-38
86.31237 -49.185425 182.7408 2.3509886e-38
92.436852 -47.96595 178.21004 2.3509886e-38
91.961205 -43.802868 162.74275 2.3509883e-38
95.542458 -42.057102 156.25662 2.3509883e-38
90.928589 -37.204357 138.22702 2.3509886e-38
93.44529 -35.716183 132.69794 2.3418047e-38
91.698921 -32.883171 122.17232 2.3509886e-38
93.395973 -31.542826 117.19247 2.3233259e-38
-236.66844 -60.426163 271.23792 6.5498316e-39
-224.08983 -60.426163 271.23792 6.3665081e-39
-190.0016 -54.281128 243.65439 9.5926335e-39
-64.553993 -20.931938 93.958229 3.8707773e-39
-60.06583 -20.886435 93.753975 4.1466481e-39
-57.083035 -21.398129 96.050842 6.2653358e-39
-66.006378 -26.837318 120.466 5.8969176e-39
-62.696468 -27.848579 125.00529 1.3466611e-38
-61.344631 -30.02425 134.77133 9.4986246e-39
-57.055927 -31.093073 139.56902 4.5143489e-39
-60.818218 -37.384281 167.80867 1.8244634e-38
-53.662529 -37.825825 169.79066 2.3508793e-38
-50.566444 -41.772869 187.50795 9.673679e-39
-85.223732 -85.024422 381.65335 2.1945005e-38
-66.932297 -84.278595 378.30551 2.3509495e-38
-28.584894 -75.651649 339.58133 2.3509886e-38
-13.934031 -82.117607 368.60538 2.3509886e-38
2.2963877 -59.675526 267.8685 2.3509886e-38
20.606247 -83.545738 375.0159 2.3509886e-38
39.015343 -85.783569 385.06097 2.341805e-38
50.957748 -76.862076 345.01462 2.3509886e-38
64.382454 -73.905846 331.74484 2.3509886e-38
63.617905 -58.943314 264.58176 2.341805e-38
77.310745 -60.0485 269.54266 2.3509527e-38
81.184853 -54.281128 243.65439 2.3509886e-38
64.447708 -37.825825 169.79066 2.3509886e-38
75.595551 -39.538105 177.47665 2.3509886e-38
88.180603 -41.592033 186.69623 2.3509883e-38
92.436852 -39.701488 178.21004 2.3508797e-38
92.66053 -36.531406 163.98033 2.3233639e-38
97.305237 -35.452988 159.13959 2.3509886e-38
89.777596 -30.404303 136.47731 2.3509883e-38
94.609718 -29.930716 134.35149 2.3418047e-38
90.926178 -26.988089 121.14278 2.3509886e-38
93.395973 -26.108044 117.19247 2.3418047e-38
-196.85239 -42.031822 238.26976 7.6579616e-39
-187.87868 -42.50145 240.93201 9.6902073e-39
-65.84507 -16.906134 95.837395 4.515781e-39
-61.128944 -16.831327 95.413338 4.3303093e-39
-57.466999 -17.057756 96.696922 6.4508088e-39
-65.82251 -21.191532 120.13044 4.2402801e-39
-62.515266 -21.987745 124.64401 2.3142544e-38
-59.305988 -22.984169 130.29253 2.3509527e-38
-53.915234 -23.26532 131.88632 2.3323689e-38
-53.164223 -25.876734 146.6899 1.0870424e-38
-50.111332 -27.969706 158.55452 1.4555364e-38
-48.662266 -31.831631 180.44698 1.1609063e-38
-64.632767 -51.058792 289.4418 2.1380729e-38
-52.262203 -52.107944 295.38922 2.3509524e-38
-37.53521 -50.718399 287.51218 2.3509168e-38
-24.695793 -51.753468 293.37979 2.3509883e-38
-11.166312 -52.107944 295.38922 2.3509527e-38
2.3107402 -47.5485 269.54266 2.3509886e-38
15.6935 -50.382515 285.60812 2.3509886e-38
30.13599 -52.467308 297.42639 2.3325478e-38
39.07803 -46.673374 264.58176 2.3509886e-38
57.722198 -52.467308 297.42639 1.8889663e-38
60.998344 -44.75153 253.68723 2.3509883e-38
80.322845 -49.401039 280.04434 2.3509518e-38
84.03344 -44.489822 252.20367 2.3509886e-38
83.095016 -38.618069 218.91791 2.3509886e-38
76.540497 -31.698999 179.69511 2.3509886e-38
85.948181 -32.100254 181.96974 2.3509883e-38
93.207161 -31.698999 179.69511 2.3509883e-38
95.567528 -29.834352 169.12482 2.3509886e-38
96.947495 -27.969706 158.55452 2.3509886e-38
89.212952 -23.923773 135.61896 2.3509886e-38
88.028168 -22.051477 125.00529 2.3509886e-38
90.926178 -21.370111 121.14278 2.3509886e-38
93.142868 -20.617235 116.87487 2.3497614e-38
-160.49677 -25.26018 194.26498 1.0243766e-38
-160.1442 -26.703617 205.36584 9.7752115e-39
-63.312569 -11.982392 92.151344 2.1670558e-38
-62.090523 -12.601707 96.914223 3.962617e-39
-57.725861 -12.63009 97.132492 6.4500942e-39
-57.077976 -13.545313 104.17108 2.3509521e-38
-54.760208 -14.19686 109.18185 1.2437761e-38
-54.833191 -15.664133 120.466 1.0133581e-38
-53.10326 -16.890842 129.90009 1.096262e-38
-51.755901 -18.568741 142.80406 1.1698744e-38
-50.296242 -20.692841 159.13959 1.5569519e-38
-47.470539 -22.888815 176.02786 1.2620698e-38
-54.71751 -31.86227 245.03879 2.230595e-38
-46.526108 -34.193657 262.96848 2.1846762e-38
-32.925625 -32.793915 252.20367 2.332119e-38
-21.869167 -33.781685 259.80017 2.2492499e-38
-8.6258287 -29.670687 228.18428 2.3234376e-38
2.2822125 -34.615799 266.215 2.3418047e-38
11.789644 -27.899302 214.56134 2.3509886e-38
23.120203 -29.670687 228.18428 2.3412636e-38
32.833599 -28.905977 222.30324 2.3509886e-38
43.592285 -29.207083 224.6189 2.3509886e-38
54.866238 -29.670687 228.18428 2.3234376e-38
64.425621 -29.207083 224.6189 2.3509524e-38
77.256554 -30.149246 231.86467 2.350664e-38
86.156418 -29.514524 226.98331 2.3509886e-38
76.860748 -23.46343 180.44698 2.3234379e-38
87.050079 -23.964785 184.30269 2.3418047e-38
96.838608 -24.276016 186.69623 2.3509886e-38
89.925163 -20.692841 159.13959 2.3509886e-38
95.542458 -20.31797 156.25662 2.3509886e-38
90.062599 -17.802412 136.91057 2.3509886e-38
90.38607 -16.68976 128.35365 2.3509527e-38
91.959427 -15.931135 122.51939 2.2383319e-38
93.906334 -15.321748 117.83286 2.350988e-38
-67.481598 -6.8328781 81.679596 1.7981675e-38
-70.503738 -7.5634375 90.412636 2.341805e-38
-66.450172 -7.5793271 90.602577 2.3509886e-38
-63.858368 -7.7753444 92.945747 2.3509524e-38
-58.663021 -7.6597872 91.564392 2.3509153e-38
-57.466999 -8.0891476 96.696922 7.1869375e-39
-55.082241 -8.4096966 100.52874 7.5553487e-39
-55.74815 -9.2983494 111.15162 8.8439295e-39
-53.488506 -9.8304081 117.5118 1.0410165e-38
-53.10326 -10.866746 129.90009 1.1606913e-38
-52.100941 -12.025866 143.75609 1.2159723e-38
-50.482525 -13.362073 159.72899 1.4186587e-38
-47.86124 -14.846747 177.47665 1.3265716e-38
-42.611866 -15.963538 190.82668 2.350519e-38
-33.175137 -15.685912 187.50795 1.6124521e-38
-27.464788 -17.598827 210.37477 1.5300889e-38
-18.427826 -18.313501 218.91791 2.3228257e-38
-7.8378925 -17.344999 207.34052 2.3416234e-38
1.7357672 -16.93784 202.47337 2.3127753e-38
10.532083 -16.034487 191.67479 1.7233041e-38
20.230179 -16.702591 199.66124 2.1471494e-38
30.331993 -17.179808 205.36584 2.350952e-38
36.709293 -15.823507 189.15276 2.3509886e-38
46.293388 -16.10607 192.53049 1.8609817e-38
55.221958 -16.10607 192.53049 1.3828654e-38
67.148216 -16.85869 201.52724 2.1743728e-38
75.785736 -16.702591 199.66124 2.3508442e-38
81.281944 -15.963538 190.82668 2.3509865e-38
90.1315 -15.963538 190.82668 2.1464995e-38
93.990417 -15.158654 181.20515 2.3509168e-38
93.729691 -13.875998 165.87242 2.3234379e-38
96.239853 -13.167006 157.39719 2.3509886e-38
90.349426 -11.48968 137.34659 2.3418047e-38
90.38607 -10.73738 128.35365 2.3509883e-38
91.698921 -10.220283 122.17232 1.6494712e-38
96.816109 -10.162704 121.48402 2.3418039e-38
-65.860039 -2.9718292 79.716873 5.0675198e-39
-61.257343 -2.928524 78.555244 2.3142538e-38
-56.991501 -2.8968642 77.705994 2.3509883e-38
-57.871647 -3.1401556 84.232086 8.5680615e-39
-57.205555 -3.3286948 89.289497 8.8457232e-39
-55.356979 -3.4724829 93.1465 7.5553487e-39
-54.954144 -3.738976 100.29495 8.5680601e-39
-54.347443 -4.039597 108.35886 9.1197975e-39
-53.198597 -4.3570724 116.87487 1.0779671e-38
-53.263691 -4.8572798 130.29253 1.1239928e-38
-51.415401 -5.2886829 141.86456 1.1977138e-38
-49.029793 -5.783308 155.13248 1.308168e-38
-45.254013 -6.2558742 167.80867 5.9905551e-39
-40.126175 -6.6989985 179.69511 1.0137919e-38
-33.466148 -7.0515776 189.15276 1.0691827e-38
-23.958645 -6.8415303 183.51842 1.6037372e-38
-15.852758 -7.0207844 188.32677 1.7142629e-38
-6.9373684 -6.8415303 183.51842 1.999925e-38
1.5090548 -6.5622845 176.02786 1.8703467e-38
9.4036446 -6.3799987 171.1382 1.4289621e-38
17.478874 -6.4310384 172.50731 2.0183643e-38
25.478874 -6.4310384 172.50731 2.3325856e-38
33.345493 -6.405417 171.82004 2.3509873e-38
40.349098 -6.2558742 167.80867 2.3508779e-38
49.478874 -6.4310384 172.50731 2.3408289e-38
59.625389 -6.6712017 178.94949 2.3314654e-38
66.815178 -6.5622845 176.02786 2.3507348e-38
76.860748 -6.7270279 180.44698 2.2948021e-38
83.141708 -6.5622845 176.02786 1.9525307e-38
87.04171 -6.2558742 167.80867 2.3404675e-38
93.729691 -6.183691 165.87242 2.1290688e-38
96.592377 -5.8892293 157.97372 2.3509167e-38
82.231071 -4.6601729 125.00529 2.3509886e-38
86.033195 -4.5545597 122.17232 2.3509879e-38
91.959427 -4.5674992 122.51939 2.3418043e-38
94.943977 -4.4413252 119.13488 2.3509879e-38
-57.654179 0.63469321 69.784508 7.9252214e-39
-58.385906 0.68097293 74.872963 6.6326791e-39
-56.482647 0.70042932 77.012192 7.5542795e-39
-60.967659 0.80707902 88.738327 8.6591739e-39
-56.045197 0.79561949 87.478355 9.1201493e-39
-55.356979 0.84717149 93.1465 9.1212339e-39
-55.082241 0.91431332 100.52874 8.844647e-39
-54.484337 0.98801112 108.63181 9.2123477e-39
-53.343159 1.0658706 117.19247 1.041161e-38
-52.627708 1.1708668 128.7368 1.0318695e-38
-50.912971 1.2776561 140.47827 1.1148459e-38
-48.679577 1.4008586 154.02438 8.478398e-39
-43.235249 1.4581428 160.32278 7.1873033e-39
-35.933887 1.4635836 160.92101 8.2943697e-39
-29.123213 1.4971008 164.60622 9.3099664e-39
-21.326824 1.4857591 163.35919 1.0966611e-38
-13.647676 1.474588 162.13094 1.6407222e-38
-6.2462897 1.5028368 165.23689 1.0967691e-38
1.3693275 1.4527422 159.72899 1.4563675e-38
8.2281895 1.3619459 149.74593 2.0190127e-38
16.006294 1.4367781 157.97372 1.1337177e-38
23.247149 1.4315343 157.39719 2.3325843e-38
30.435341 1.4263288 156.82483 2.3325478e-38
37.708069 1.4263288 156.82483 2.1656963e-38
44.177567 1.4008586 154.02438 1.935423e-38
51.504368 1.4058796 154.57645 2.3418047e-38
65.218002 1.5627108 171.82004 2.3509886e-38
65.140846 1.3909234 152.93201 2.341804e-38
73.536888 1.4160303 155.69252 2.3509527e-38
80.178207 1.4058796 154.57645 2.0639563e-38
85.50779 1.3762821 151.3222 2.3508423e-38
90.307259 1.343289 147.69461 2.341805e-38
86.49305 1.1958549 131.48424 2.3509886e-38
89.322701 1.1536483 126.84361 2.3509886e-38
90.671486 1.0987126 120.80344 2.3509869e-38
92.391716 1.0544097 115.93233 2.341805e-38
-98.251389 6.2460585 112.60268 5.7128752e-39
-57.291794 4.075367 73.469894 6.8170676e-39
-56.082062 4.2415609 76.466003 7.7382994e-39
-60.967659 4.9223056 88.738327 8.4751456e-39
-56.273487 4.87218 87.834679 9.3967362e-39
-55.356979 5.1668262 93.1465 9.3974578e-39
-54.954144 5.5633497 100.29495 8.3843933e-39
-54.621925 6.0410113 108.90613 9.2123477e-39
-53.488506 6.5183663 117.5118 9.6744091e-39
-52.471077 7.1197634 128.35365 9.858436e-39
-49.619942 7.5944142 136.91057 8.4780309e-39
-45.586227 8.0008039 144.23688 6.8203186e-39
-39.966606 8.2207575 148.20216 5.7143382e-39
-32.980415 8.1926041 147.69461 1.1241384e-38
-26.494034 8.3063908 149.74593 9.67803e-39
-19.281786 8.1926041 147.69461 9.8609765e-39
-12.060737 7.9476428 143.2785 1.1245356e-38
-5.3103638 7.7923141 140.47827 1.0321239e-38
1.2082301 7.8177791 140.93735 1.0964443e-38
7.4519448 7.5227685 135.61896 2.3497976e-38
14.141484 7.7418785 139.56902 9.6747608e-39
20.748268 7.7923141 140.47827 1.0686388e-38
27.4417 7.8434114 141.39943 1.0044266e-38
33.999077 7.8434114 141.39943 1.1608358e-38
38.655373 7.4757514 134.77133 1.1973173e-38
45.473793 7.5703812 136.47731 1.2626834e-38
49.455345 7.2273126 130.29253 2.3507002e-38
59.641945 7.7670145 140.02217 2.3499066e-38
67.226791 7.8951831 142.33276 2.3509876e-38
72.62896 7.7670145 140.02217 2.3509879e-38
77.610573 7.6186004 137.34659 2.3509886e-38
74.913971 6.7961378 122.51939 2.341805e-38
86.49305 7.293416 131.48424 2.3509886e-38
88.541458 6.974462 125.73419 2.3509863e-38
88.441856 6.5361762 117.83286 2.3326196e-38
89.504478 6.2297931 112.30945 1.3074845e-38
-55.864258 7.2960806 71.639252 7.0936517e-39
-67.441963 9.365118 91.954857 7.7382994e-39
-62.248493 9.227396 90.602577 8.4751456e-39
-57.205555 9.0936661 89.289497 9.2130666e-39
-56.330292 9.6532755 94.784241 9.4892975e-39
-54.699726 10.167223 99.83062 8.2921949e-39
-54.211235 11.008121 108.08729 9.4892975e-39
-52.34742 11.712642 115.00488 9.0290396e-39
-51.400238 12.805366 125.73419 7.9237781e-39
-47.799026 13.431928 131.88632 3.4105222e-39
-42.068771 13.556298 133.1075 4.5157936e-39
-36.344631 13.725752 134.77133 5.8972833e-39
-30.379438 13.855648 136.04678 9.3078028e-39
-23.844631 13.725752 134.77133 1.032305e-38
-17.485348 13.640498 133.93425 8.5713307e-39
-11.170097 13.514586 132.69794 1.0045008e-38
-4.8376307 13.033355 127.97279 9.5869246e-39
1.0842183 12.88047 126.47163 9.3027483e-39
6.7130833 12.442608 122.17232 2.2302663e-38
12.928162 12.994794 127.59416 1.1702709e-38
18.679527 12.88047 126.47163 1.5756454e-38
24.83596 13.033355 127.97279 1.7789452e-38
30.679642 12.994794 127.59416 2.3509527e-38
35.750633 12.694337 124.64401 2.3508795e-38
42.139938 12.88047 126.47163 1.9446074e-38
48.146233 12.918354 126.84361 1.0963741e-38
53.400345 12.768141 125.36868 1.5943356e-38
58.702358 12.657754 124.28481 1.6226445e-38
63.550339 12.477956 122.51939 1.8807206e-38
68.647095 12.372508 121.48402 2.1759613e-38
71.656845 11.935436 117.19247 2.0371631e-38
79.467003 12.303195 120.80344 2.259151e-38
79.920311 11.558528 113.49165 2.3509168e-38
84.296143 11.438127 112.30945 2.1655884e-38
89.040726 11.378861 111.72753 6.3571825e-39
-56.807911 10.797704 72.849373 6.9099793e-39
-56.786861 11.476195 77.426979 7.6461038e-39
-56.331333 12.152549 81.990166 8.3833059e-39
-57.324238 13.261909 89.474747 9.2123477e-39
-55.476803 13.836019 93.348114 9.2127106e-39
-55.210941 14.935142 100.76362 8.9368426e-39
-53.940853 15.940749 107.5482 8.9379216e-39
-51.794941 16.86607 113.7911 7.923418e-39
-49.384544 17.905436 120.80344 5.3437564e-39
-44.278419 18.10833 122.17232 7.1890983e-39
-38.722393 18.159775 122.51939 6.5426499e-39
-33.040573 18.159775 122.51939 5.8061695e-39
-27.358755 18.159775 122.51939 5.8065324e-39
-21.738695 18.211512 122.86845 6.3589873e-39
-15.904751 18.057177 121.82719 1.0874412e-38
-9.8648958 17.370218 117.19247 1.18871e-38
-4.3824773 17.183443 115.93233 1.0875117e-38
1.0019469 17.323145 116.87487 9.7662516e-39
6.1391668 16.560209 111.72753 1.0681706e-38
11.874235 17.370218 117.19247 1.3639911e-38
17.031334 17.091553 115.31238 2.3141816e-38
22.559889 17.229759 116.24482 2.3509527e-38
27.652582 17.045975 115.00488 2.1930663e-38
32.466454 16.777534 113.19377 9.7669788e-39
37.518848 16.689922 112.60268 1.4926341e-38
44.971756 17.5611 118.48029 1.7145521e-38
49.782436 17.323145 116.87487 1.3455538e-38
56.740166 17.805683 120.13044 1.5946244e-38
59.652584 17.045975 115.00488 2.341805e-38
64.81308 17.000639 114.69901 2.3509527e-38
68.315331 16.560209 111.72753 2.341805e-38
73.687584 16.603222 112.01774 1.3917219e-38
78.071259 16.432495 110.86588 1.0966986e-38
81.127113 16.020653 108.08729 1.2259875e-38
83.624619 15.552896 104.93146 9.768418e-39
-57.825012 15.342304 78.842461 7.6461038e-39
-62.117992 17.593796 90.412636 8.1989146e-39
-57.324238 17.411287 89.474747 8.7517325e-39
-55.237679 18.086725 92.945747 9.3971019e-39
-54.699726 19.426483 99.83062 9.1219583e-39
-53.408104 20.721582 106.48599 7.7404686e-39
-49.823051 21.300102 109.45895 3.0417425e-39
-46.032066 21.911856 112.60268 4.1470111e-39
-41.240849 22.143114 113.7911 3.7778628e-39
-36.154594 22.260586 114.39477 5.25336e-39
-30.767941 22.201694 114.09214 6.4508312e-39
-25.342846 22.084845 113.49165 6.3593433e-39
-19.71649 21.685377 111.43884 7.0969083e-39
-14.511035 21.629486 111.15162 8.2932851e-39
-9.2373581 21.354301 109.73747 7.1880249e-39
-4.0554271 20.876221 107.28067 7.3709813e-39
0.90839911 20.619755 105.96272 1.6585113e-38
5.710165 20.222267 103.92007 8.1045694e-39
10.842974 20.824419 107.01446 1.8795997e-38
16.004318 21.086031 108.35886 1.0780025e-38
20.924297 20.980602 107.81707 1.3638116e-38
25.924297 20.980602 107.81707 1.4840985e-38
30.618116 20.772873 106.74957 1.1885672e-38
34.132347 19.934063 102.43902 1.492921e-38
40.22044 20.619755 105.96272 1.3824654e-38
45.469601 20.772873 106.74957 2.3508065e-38
50.420097 20.772873 106.74957 6.7328159e-39
54.163967 20.320194 104.42331 5.4377513e-39
59.006584 20.320194 104.42331 4.8881999e-39
63.236736 20.125277 103.42165 1.5120839e-38
68.196442 20.173655 103.67026 2.2498978e-38
72.48143 20.029213 102.92799 2.3508413e-38
76.705498 19.886826 102.19627 2.3509873e-38
77.935875 19.030024 97.793259 1.1889283e-38
-56.786861 18.657524 77.426979 7.6461038e-39
-57.871647 20.297344 84.232086 7.8304951e-39
-56.273487 21.165459 87.834679 8.5680601e-39
-55.118885 22.348904 92.745865 7.9237781e-39
-54.073872 23.78087 98.688393 7.0036281e-39
-52.373566 25.162809 104.42331 3.962617e-39
-47.9958 25.408901 105.44456 3.8704242e-39
-43.105824 25.408901 105.44456 4.4232322e-39
-38.403641 25.53376 105.96272 3.3183294e-39
-33.572124 25.596651 106.22372 6.6355756e-39
-28.160488 25.162809 104.42331 7.1894641e-39
-23.431343 25.285257 104.93146 7.7404798e-39
-18.298038 24.92144 103.42165 8.2943697e-39
-13.185672 24.337801 100.9996 9.8609793e-39
-8.40343 24.056112 99.83062 1.1796725e-38
-3.7738001 24.056112 99.83062 7.2802206e-39
0.83646703 23.511856 97.572006 9.9528092e-39
5.410316 23.726576 98.463074 5.989116e-39
10.257555 24.394932 101.23669 1.7051145e-38
14.643031 23.890209 99.142136 2.3503026e-38
19.647226 24.394932 101.23669 2.3509521e-38
24.003979 24.056112 99.83062 2.3326208e-38
28.305992 23.78087 98.688393 1.7135754e-38
32.291504 23.35335 96.914223 1.0042836e-38
37.373787 23.726576 98.463074 1.1425793e-38
41.65469 23.565172 97.793259 9.4003683e-39
46.826939 23.890209 99.142136 1.2075484e-38
51.189289 23.78087 98.688393 2.3504098e-38
55.893852 23.835415 98.914742 2.2867037e-38
60.067696 23.672529 98.238785 7.7422721e-39
61.942619 22.690481 94.163383 1.0320869e-38
64.616425 22.111151 91.759209 1.8434457e-38
69.166069 22.205643 92.151344 2.0006499e-38
73.282982 22.158295 91.954857 1.5304877e-38
-59.947029 22.089556 76.874916 6.6326763e-39
-56.786861 22.248188 77.426979 7.1858501e-39
-57.758835 24.156414 84.067894 7.9226907e-39
-55.706215 24.984356 86.949249 7.7390211e-39
-55.000607 26.592791 92.546844 5.1615161e-39
-51.594501 27.057295 94.163383 3.3186895e-39
-48.389893 27.723133 96.480598 3.8715004e-39
-44.614277 28.164183 98.015518 3.7785817e-39
-40.810837 28.685741 99.83062 3.410525e-39
-36.18121 28.685741 99.83062 4.9767689e-39
-31.119366 28.292788 98.463074 5.25336e-39
-26.49267 28.228338 98.238785 6.1753149e-39
-21.689823 27.910452 97.132492 6.2671476e-39
-16.918585 27.477253 95.624893 7.1891039e-39
-12.186757 26.823032 93.348114 6.3607936e-39
-7.8577523 26.823032 93.348114 7.5578865e-39
-3.490967 26.535847 92.348671 6.6384511e-39
0.77999669 26.143969 90.984871 7.003984e-39
5.0527048 26.422688 91.954857 6.7266909e-39
9.4378366 26.765099 93.1465 1.0135059e-38
13.698319 26.649981 92.745865 2.2402085e-38
17.92231 26.535847 92.348671 2.350988e-38
22.063231 26.36647 91.759209 2.3416974e-38
26.54446 26.592791 92.546844 2.3234012e-38
30.639059 26.422688 91.954857 2.3417323e-38
33.682549 25.498438 88.738327 2.2670378e-38
39.167843 26.422688 91.954857 9.5851085e-39
43.432236 26.422688 91.954857 1.2999267e-38
47.193501 26.143969 90.984871 9.953175e-39
49.43148 25.136391 87.478355 9.8641827e-39
53.488274 25.136391 87.478355 1.3278284e-38
58.980705 25.763494 89.660767 2.0001059e-38
61.979019 25.290287 88.013931 1.1245371e-38
65.525749 25.085508 87.30127 2.15716e-38
69.154366 24.934086 86.7743 2.3508089e-38
-60.269321 25.792545 77.288223 6.4490039e-39
-57.509605 26.167711 78.412415 7.0021777e-39
-56.117958 27.258032 81.679596 7.2784087e-39
-55.150265 28.727028 86.08149 5.1611602e-39
-52.737206 29.613665 88.738327 2.5814804e-39
-49.958313 30.42757 91.177223 3.1342983e-39
-46.120003 30.68708 91.954857 3.6871091e-39
-42.398018 31.084753 93.1465 2.9499084e-39
-38.410202 31.355644 93.958229 3.4101677e-39
-33.831779 31.152037 93.348114 4.8838573e-39
-29.124535 30.752651 92.151344 3.5949163e-39
-24.536459 30.363377 90.984871 4.3314023e-39
-20.317051 30.363377 90.984871 7.005063e-39
-16.030005 30.2358 90.602577 4.4235952e-39
-11.632813 29.736034 89.105019 4.6998219e-39
-7.3786211 29.252522 87.656151 4.7001863e-39
-3.2736578 28.900082 86.60006 6.2675106e-39
0.72351944 28.164854 84.396927 1.742101e-38
4.7018223 28.556034 85.569099 6.2674938e-39
8.7921906 28.958231 86.7743 1.170778e-38
12.764967 28.842165 86.426506 1.1887838e-38
16.874434 29.016615 86.949249 1.3271863e-38
20.656811 28.669802 85.910019 1.5483507e-38
24.591887 28.612804 85.73922 2.3508088e-38
28.624937 28.669802 85.910019 1.916698e-38
31.785862 27.946098 83.741417 2.3142539e-38
35.878357 28.109844 84.232086 1.207947e-38
40.49646 28.612804 85.73922 2.3325843e-38
44.208931 28.443163 85.230888 1.1152423e-38
47.411903 28.000469 83.904335 9.2181211e-39
52.114071 28.443163 85.230888 5.1604455e-39
55.409607 28.109844 84.232086 5.0707765e-39
59.315857 28.109844 84.232086 5.2551677e-39
63.222107 28.109844 84.232086 5.1626204e-39
65.842377 27.571342 82.618446 5.348099e-39
-57.301235 29.696089 78.128311 6.6330393e-39
-55.383705 30.639702 80.610893 5.2529929e-39
-54.071003 32.078751 84.396927 3.0417425e-39
-51.056339 32.653866 85.910019 3.962617e-39
-47.072273 32.653866 85.910019 4.056256e-39
-43.69754 33.115639 87.124908 3.6867546e-39
-40.308586 33.659634 88.556114 3.8711459e-39
-36.201813 33.659634 88.556114 3.594559e-39
-32.161076 33.728889 88.738327 3.5938345e-39
-27.04421 32.524288 85.569099 6.4526235e-39
-23.353979 32.916145 86.60006 4.3335617e-39
-19.415892 33.048874 86.949249 4.8853034e-39
-15.230103 32.719044 86.08149 6.267512e-39
-10.996644 32.016094 84.232086 7.0032819e-39
-6.9148221 31.223316 82.146339 5.8980106e-39
-3.0818179 30.987223 81.525192 4.8842132e-39
0.68088108 30.18829 79.423256 6.2646309e-39
4.4627466 30.87051 81.218132 5.1597211e-39
8.3232737 31.223316 82.146339 1.9547629e-38
12.063861 31.04591 81.679596 1.8432964e-38
15.821774 30.987223 81.525192 1.723698e-38
19.491953 30.812483 81.065468 1.521411e-38
23.471952 31.10482 81.834587 1.3641011e-38
27.112677 30.928757 81.371376 1.0690405e-38
30.654903 30.697081 80.761848 8.8406911e-39
33.39949 29.804073 78.412415 8.2911243e-39
37.861931 30.468849 80.161392 1.5025022e-38
41.196537 30.18829 79.423256 2.3509879e-38
45.980602 30.928757 81.371376 2.3507341e-38
49.660488 30.87051 81.218132 1.0324141e-38
52.150219 30.132795 79.27726 1.2165155e-38
55.622196 30.022419 78.986862 1.3089984e-38
59.393982 30.077505 79.131798 2.2208709e-38
63.17963 30.132795 79.27726 1.677781e-38
-57.000477 31.17329 73.096321 5.8965532e-39
-55.785332 32.437813 76.061424 5.3441067e-39
-55.177433 34.249985 80.310669 3.0417425e-39
-51.936619 34.57188 81.065468 4.2399284e-39
-48.542202 34.83379 81.679596 4.1480873e-39
-45.268738 35.234177 82.618446 3.1342997e-39
-42.000549 35.713089 83.741417 4.1480873e-39
-38.340393 35.922344 84.232086 3.4108866e-39
-34.300159 35.78257 83.904335 3.5016389e-39
-29.715364 34.966236 81.990166 4.4239511e-39
-25.814928 34.83379 81.679596 7.0047099e-39
-22.110802 34.966236 81.990166 5.8065296e-39
-18.136124 34.63699 81.218132 4.7923819e-39
-14.156367 34.122894 80.012665 4.6072704e-39
-10.349783 33.809265 79.27726 4.6076347e-39
-6.552855 33.19899 77.84626 3.7793076e-39
-2.9587688 33.379745 78.270103 4.8838573e-39
0.63965124 31.820486 74.613892 8.7560737e-39
4.2544317 33.02018 77.426979 4.8845761e-39
7.9161568 33.319279 78.128311 9.4889598e-39
11.394845 32.902042 77.149963 2.23956e-38
14.892737 32.726406 76.738129 2.3509879e-38
18.517355 32.843288 77.012192 2.1665268e-38
22.167955 32.961006 77.288223 1.115498e-38
25.660212 32.843288 77.012192 1.0139372e-38
29.127613 32.726406 76.738129 8.9400922e-39
31.187977 31.226215 73.220421 1.557674e-38
36.374496 32.843288 77.012192 1.1336123e-38
39.662621 32.610355 76.466003 1.8619212e-38
42.904434 32.380707 75.927513 2.3417691e-38
46.020451 32.098152 75.264969 1.5115076e-38
49.510853 32.098152 75.264969 1.0694376e-38
51.737171 31.332607 73.469894 4.7048624e-39
55.90625 31.765528 74.485023 2.1193441e-38
58.551479 31.332607 73.469894 2.350988e-38
-56.426647 34.215168 72.360451 5.0675198e-39
-55.394539 35.713207 75.528595 2.3963731e-39
-52.350323 36.028694 76.195808 3.1342997e-39
-49.428055 36.479858 77.149963 3.7793048e-39
-46.856091 37.280148 78.842461 3.5016417e-39
-43.278904 37.348427 78.986862 4.1477328e-39
-39.615902 37.348427 78.986862 4.0548127e-39
-36.018867 37.416954 79.131798 3.3186909e-39
-32.172047 37.21212 78.698593 3.224689e-39
-28.16267 36.742775 77.705994 4.9767732e-39
-24.470882 36.610844 77.426979 4.2392039e-39
-20.76836 36.414715 77.012192 4.7931022e-39
-17.196932 36.414715 77.012192 3.8704256e-39
-13.386459 35.77586 75.661102 4.2388438e-39
-9.7747946 35.403194 74.872963 4.7923819e-39
-6.2807641 35.280693 74.613892 4.8856663e-39
-2.7678804 34.621799 73.220421 3.7782286e-39
0.59824991 32.997154 69.784508 1.0320153e-38
3.9961526 34.388264 72.726524 4.7009121e-39
7.4063025 34.563122 73.096321 5.8072569e-39
10.75966 34.446354 72.849373 8.2021965e-39
14.161961 34.504639 72.972633 2.3416245e-38
17.486877 34.388264 72.726524 2.3509883e-38
20.894794 34.446354 72.849373 2.146969e-38
24.314245 34.504639 72.972633 2.1841704e-38
27.698339 34.504639 72.972633 1.8520478e-38
30.065006 33.375191 70.584007 8.9357762e-39
33.175438 33.21212 70.239136 9.1248576e-39
37.097378 33.817978 71.520447 9.5905427e-39
40.081776 33.539871 70.932281 1.3277297e-38
44.244495 34.215168 72.360451 8.0239037e-39
47.520466 34.157856 72.239243 1.6222493e-38
50.531979 33.930519 71.758446 1.2713649e-38
53.23967 33.539871 70.932281 4.7005562e-39
56.809452 33.706184 71.284012 1.4386471e-38
-56.11068 35.263371 67.916267 4.5154251e-39
-56.712112 37.760944 72.726524 3.0413852e-39
-52.454865 37.134727 71.520447 2.9495469e-39
-49.71524 37.570873 72.360451 2.8573513e-39
-47.39328 38.408646 73.973976 3.6874735e-39
-44.652058 39.010872 75.13385 3.8711459e-39
-40.953693 38.808044 74.743202 4.3328429e-39
-37.683418 39.010872 75.13385 4.0555399e-39
-34.682476 39.562263 76.195808 3.3176035e-39
-30.034552 38.146919 73.469894 3.8722165e-39
-26.764181 38.342876 73.847305 5.1618875e-39
-23.500486 38.607311 74.356598 4.2388522e-39
-19.77939 38.082043 73.344948 4.7916616e-39
-16.462021 38.277336 73.721077 4.7012639e-39
-12.612036 37.011967 71.284012 3.7778628e-39
-9.1847992 36.528942 70.353714 3.7793076e-39
-5.9221559 36.528942 70.353714 3.6860329e-39
-2.6084507 35.827587 69.002922 3.5016389e-39
0.57143497 34.609337 66.656609 2.2019982e-38
3.8283012 36.174866 69.671776 4.0548155e-39
7.0365839 36.058357 69.447388 5.3451913e-39
10.374134 36.469448 70.239136 7.9252382e-39
13.609299 36.410149 70.124924 9.5847596e-39
16.752373 36.174866 69.671776 1.2169483e-38
20.178986 36.528942 70.353714 9.2152582e-39
23.139645 36.058357 69.447388 2.3139625e-38
26.574219 36.35104 70.011086 2.3223537e-38
29.112074 35.486912 68.346794 2.1828745e-38
30.95702 34.030762 65.54229 2.3219936e-38
35.007385 35.042629 67.491127 9.0323201e-39
37.60759 34.555927 66.553749 1.096409e-38
41.396732 35.152653 67.703026 1.6038102e-38
44.466644 35.097557 67.596909 5.8069038e-39
47.231289 34.824635 67.071274 1.0413434e-38
50.030479 34.609337 66.656609 5.4392016e-39
51.221638 33.371449 64.272469 1.0879419e-38
-56.377029 38.595318 68.238655 4.2402801e-39
-53.894684 39.09013 69.11351 2.4889289e-39
-50.689556 39.09013 69.11351 3.3186895e-39
-48.894855 40.251225 71.166382 3.3172476e-39
-46.050468 40.653736 71.878044 3.9626212e-39
-43.00383 40.926579 72.360451 3.8715032e-39
-39.581711 40.858025 72.239243 3.8711459e-39
-36.292419 40.926579 72.360451 3.0413852e-39
-32.286648 40.118816 70.932281 2.8577128e-39
-28.760656 39.791584 70.353714 5.2529929e-39
-25.33271 39.533615 69.897614 4.0555371e-39
-22.344725 39.987282 70.699715 4.423235e-39
-18.819227 39.469646 69.784508 4.0548155e-39
-15.359302 38.903095 68.782822 5.9909237e-39
-11.903716 38.053417 67.28054 3.2257765e-39
-8.852644 38.352581 67.809479 2.9495469e-39
-5.6283436 37.817429 66.863297 2.7651556e-39
-2.4927855 37.297005 65.943161 2.9495469e-39
0.54052401 35.661171 63.050919 1.3174616e-38
3.6682949 37.758888 66.759796 4.1470111e-39
6.7330022 37.584347 66.451202 7.1880221e-39
9.90625 37.935055 67.071274 5.7154242e-39
12.956221 37.758888 66.759796 5.9891524e-39
16.027386 37.700527 66.656609 6.82142e-39
19.118576 37.700527 66.656609 1.2535002e-38
22.175491 37.642345 66.553749 1.0046458e-38
24.877993 37.070274 65.54229 1.5582168e-38
27.7908 36.902027 65.24482 1.6499379e-38
29.393534 35.19804 62.232075 2.3418047e-38
33.842236 36.902027 65.24482 7.6533443e-39
36.979847 37.014023 65.442833 1.8896154e-38
40.075562 37.070274 65.54229 2.3508804e-38
43.180698 37.126698 65.642052 1.1894717e-38
45.531815 36.570076 64.657913 8.2969018e-39
48.385231 36.460751 64.464615 6.824657e-39
50.028702 35.505444 62.775585 4.5168838e-39
-52.629665 38.984108 63.702847 3.1342983e-39
-52.46534 41.173542 67.28054 2.3045376e-39
-50.127232 41.826054 68.346794 4.3313995e-39
-46.809292 41.693905 68.130852 3.594559e-39
-44.279297 42.295258 69.11351 3.3186909e-39
-41.00845 42.227585 69.002922 3.3183294e-39
-37.990807 42.431255 69.335739 3.0417425e-39
-34.333782 41.892445 68.455284 4.7923777e-39
-30.962589 41.628139 68.023392 3.5027179e-39
-27.633671 41.367149 67.596909 5.2519139e-39
-24.460535 41.30241 67.491127 4.7920176e-39
-21.297316 41.237877 67.385666 4.6079906e-39
-18.031445 40.918201 66.863297 3.6871119e-39
-14.680307 40.232075 65.742119 3.6860343e-39
-11.354586 39.27417 64.176826 2.9495469e-39
-8.2920198 38.869278 63.515209 3.594559e-39
-5.3465118 38.869278 63.515209 3.6860301e-39
-2.3593078 38.194271 62.412197 3.6860329e-39
0.51708871 36.912224 60.317242 6.1713493e-39
3.4544001 38.472656 62.867096 3.5027207e-39
6.36058 38.416653 62.775585 5.0697059e-39
9.2717886 38.416653 62.775585 1.8801074e-38
12.436432 39.215813 64.081467 1.1979674e-38
15.138275 38.52882 62.958874 8.1110686e-39
17.953148 38.305138 62.593365 7.7433679e-39
20.947111 38.472656 62.867096 8.2947438e-39
23.758663 38.305138 62.593365 7.8355579e-39
26.584253 38.194271 62.412197 7.8333943e-39
28.852293 37.382778 61.086159 6.5408478e-39
30.812284 36.352947 59.403343 9.0330165e-39
34.616077 37.488979 61.259697 1.3090371e-38
37.456985 37.488979 61.259697 2.2315664e-38
40.470356 37.649418 61.521866 2.3222492e-38
44.206287 38.416653 62.775585 1.3729585e-38
46.642246 38.029167 62.142403 4.7041575e-39
49.310932 37.865482 61.874931 4.8860307e-39
-53.418713 42.567078 64.657913 2.3970976e-39
-50.045063 42.250359 64.176826 3.1335836e-39
-47.421711 42.567078 64.657913 3.9629701e-39
-45.099365 43.214977 65.642052 4.0558945e-39
-42.055225 43.214977 65.642052 3.6867546e-39
-39.130203 43.346931 65.842484 4.0558917e-39
-36.131931 43.413212 65.943161 3.8704242e-39
-33.124474 43.479694 66.044144 3.0413852e-39
-29.742851 43.018547 65.343681 2.8573597e-39
-26.274637 42.313324 64.272469 4.4246742e-39
-23.224787 42.18758 64.081467 4.2392067e-39
-20.253019 42.18758 64.081467 4.3314037e-39
-17.028231 41.569901 63.143234 3.594559e-39
-13.81676 40.734924 61.874931 3.5027207e-39
-10.900402 40.560345 61.609753 3.3179721e-39
-7.9523754 40.102036 60.913597 2.9491896e-39
-5.042058 39.433666 59.898373 2.9495441e-39
-2.2150564 38.576416 58.596233 2.9495441e-39
0.49961951 38.367893 58.279499 4.1444845e-39
3.3050468 39.598663 60.148994 4.1477328e-39
6.1545329 39.989071 60.742012 4.423249e-39
8.9336863 39.820816 60.486435 1.5658489e-38
11.821636 40.102036 60.913597 1.0135054e-38
14.646495 40.102036 60.913597 1.4281328e-38
17.22802 39.54351 60.06522 6.6348708e-39
19.87513 39.270042 59.64983 6.9118122e-39
22.610109 39.215801 59.56744 6.8221389e-39
25.337543 39.161713 59.485279 7.0047239e-39
27.676249 38.576416 58.596233 6.7259622e-39
29.589575 37.555874 57.04607 1.1705608e-38
33.567104 39.107769 59.403343 7.740833e-39
35.828423 38.576416 58.596233 7.1898648e-39
38.703571 38.734299 58.836056 1.9716176e-38
41.602356 38.893482 59.077847 2.0186893e-38
43.391045 38.059303 57.81076 1.3731401e-38
47.146393 38.946835 59.158886 1.3181831e-38
-57.099812 48.705513 69.11351 2.6726027e-39
-48.111992 43.479603 61.697895 3.5030808e-39
-45.576775 43.792854 62.142403 3.2261338e-39
-43.067272 44.17477 62.684341 3.2250562e-39
-40.395149 44.433102 63.050919 4.1480873e-39
-37.802776 44.826313 63.608891 3.1328606e-39
-34.496761 44.368237 62.958874 3.409446e-39
-30.900402 43.417488 61.609753 3.6867546e-39
-28.326525 43.856049 62.232075 4.5154307e-39
-25.367311 43.729843 62.05299 3.7793076e-39
-22.360918 43.479603 61.697895 3.6860329e-39
-19.388737 43.232208 61.34684 3.5945618e-39
-16.403782 42.866348 60.827682 2.8573513e-39
-13.338341 42.094517 59.732449 3.2257765e-39
-10.381335 41.349987 58.675957 3.5016417e-39
-7.6498394 41.293804 58.596233 3.3179721e-39
-4.8991656 41.015171 58.200848 8.2032503e-39
-2.106307 39.26646 55.719418 2.7648011e-39
0.48711255 40.042477 56.820591 3.5016417e-39
3.1723139 40.68573 57.733372 4.0562588e-39
5.8811822 40.904766 58.044182 7.928471e-39
8.607728 41.070595 58.279499 1.0961935e-38
11.371901 41.293804 58.596233 2.3320437e-38
14.10846 41.349987 58.675957 2.350701e-38
16.82955 41.349987 58.675957 1.5670373e-38
19.314138 40.849785 57.966167 2.3509527e-38
21.884651 40.63134 57.656189 1.5577457e-38
24.427818 40.415215 57.349506 1.1427234e-38
27.015543 40.308014 57.197384 1.2260224e-38
28.460201 38.666973 54.868736 6.8181578e-39
31.243229 38.964413 55.290806 9.0315816e-39
34.515339 39.780418 56.448727 1.2626494e-38
37.036186 39.676556 56.301342 1.4751315e-38
39.855274 39.88483 56.596886 2.3049256e-38
42.64785 40.042477 56.820591 1.3089268e-38
43.561115 38.519951 54.66011 1.1889297e-38
-46.708725 44.989223 59.898373 3.1335864e-39
-44.86565 45.946442 61.172806 3.6871091e-39
-41.909874 45.816467 60.999756 3.4105194e-39
-39.359375 46.142792 61.434227 2.8577128e-39
-36.200962 45.751755 60.913597 2.67296e-39
-32.819836 44.989223 59.898373 2.5811245e-39
-30.042059 44.989223 59.898373 5.3455543e-39
