# .PCD v0.7 - Point Cloud Data file format
VERSION 0.7
FIELDS x y z rgb
SIZE 4 4 4 4
TYPE F F F F
COUNT 1 1 1 1
WIDTH 1084
HEIGHT 1
VIEWPOINT 0 0 0 1 0 0 0
POINTS 1084
DATA ascii
6.8575034 35.294273 79.864494 1.0042841e-38
8.1221533 35.42548 80.161392 9.1208821e-39
9.3439426 35.359753 80.012665 1.3819255e-38
10.541685 35.229034 79.716873 1.8971746e-38
11.817659 35.359753 80.012665 1.4181914e-38
13.152122 35.624126 80.610893 1.7688548e-38
14.371366 35.557663 80.460503 1.068639e-38
15.470829 35.229034 79.716873 1.0042106e-38
16.953819 35.757801 80.913376 1.6765185e-38
17.935402 35.229034 79.716873 1.2157926e-38
18.922844 34.77903 78.698593 1.6948484e-38
19.88538 34.340374 77.705994 1.4089344e-38
21.048655 34.27861 77.566238 3.4076342e-39
22.738453 35.034756 79.27726 3.9611723e-39
24.186243 35.359753 80.012665 4.2391927e-39
25.90369 36.028179 81.525192 3.8700613e-39
27.215376 36.096416 81.679596 9.2109142e-39
28.210854 35.757801 80.913376 1.0038871e-38
29.461636 35.757801 80.913376 1.4097657e-38
30.828096 35.892483 81.218132 1.1053009e-38
31.843712 35.624126 80.610893 9.3023993e-39
33.213982 35.757801 80.913376 9.3999844e-39
34.725365 36.028179 81.525192 1.1237782e-38
35.917709 35.960201 81.371376 9.7716438e-39
37.245846 36.028179 81.525192 8.2007209e-39
38.579014 36.096416 81.679596 8.196765e-39
39.616547 35.892483 81.218132 8.0130997e-39
41.026566 36.028179 81.525192 7.5531795e-39
42.127529 35.892483 81.218132 1.4187312e-38
43.383022 35.892483 81.218132 1.1975344e-38
44.387737 35.690838 80.761848 8.8399624e-39
46.15477 36.096416 81.679596 1.5390157e-38
47.688354 36.302681 82.146339 1.0871146e-38
49.619793 36.793259 83.256424 1.1240649e-38
51.104107 36.935867 83.579124 1.1790926e-38
51.694809 36.441505 82.460472 9.5782449e-39
53.480797 36.793259 83.256424 9.4874927e-39
54.244205 36.441505 82.460472 9.2130638e-39
56.601143 37.151867 84.067894 1.02265e-38
57.900688 37.151867 84.067894 1.1054094e-38
59.54847 37.370407 84.562408 1.1606549e-38
60.617943 37.22443 84.232086 1.2528869e-38
61.559326 37.007587 83.741417 1.0683501e-38
62.610676 36.864426 83.417465 1.0410542e-38
64.024002 36.935867 83.579124 9.6740391e-39
65.69796 37.151867 84.067894 9.581133e-39
66.607986 36.935867 83.579124 1.5014176e-38
67.899971 36.935867 83.579124 1.7039592e-38
-63.67886 34.60627 75.661102 3.5949135e-39
-61.664227 34.789371 76.061424 4.7001821e-39
-60.381954 34.728123 75.927513 4.7012639e-39
-60.054077 35.224239 77.012192 5.3466305e-39
-59.825073 35.799591 78.270103 4.240999e-39
-59.043781 36.061378 78.842461 4.5157936e-39
-57.614357 35.930008 78.555244 5.5328252e-39
-55.891003 35.605728 77.84626 5.3476997e-39
-54.490917 35.47765 77.566238 4.9771193e-39
-53.873241 35.864681 78.412415 4.6076263e-39
-53.046913 36.127426 78.986862 4.4246714e-39
-52.208393 36.394047 79.569794 4.425393e-39
-51.167191 36.528843 79.864494 4.8849264e-39
-49.932621 36.528843 79.864494 5.1604441e-39
-48.788403 36.596611 80.012665 5.1611602e-39
-47.551544 36.596611 80.012665 4.2402829e-39
-46.058331 36.394047 79.569794 5.0700436e-39
-43.936615 35.670116 77.98703 4.423235e-39
-43.358315 36.193714 79.131798 5.2530041e-39
-42.212528 36.260246 79.27726 7.0061546e-39
-41.062519 36.327023 79.423256 6.5451765e-39
-39.908268 36.394047 79.569794 6.6348484e-39
-38.82151 36.528843 79.864494 8.8442925e-39
-37.310566 36.260246 79.27726 1.0044631e-38
-36.151531 36.327023 79.423256 9.3052706e-39
-35.052895 36.461319 79.716873 1.3361503e-38
-33.510895 36.127426 78.986862 1.0135383e-38
-32.172047 35.995575 78.698593 1.3912509e-38
-30.731188 35.734737 78.128311 1.3725595e-38
-29.738956 35.995575 78.698593 1.0868981e-38
-28.470459 35.930008 78.555244 1.1515441e-38
-27.40589 36.127426 78.986862 9.9506316e-39
-25.947275 35.799591 78.270103 1.2346276e-38
-24.737354 35.799591 78.270103 1.2435221e-38
-23.357864 35.541576 77.705994 2.017279e-38
-21.998119 35.287254 77.149963 1.0959737e-38
-20.805513 35.287254 77.149963 1.1609448e-38
-19.648056 35.350491 77.288223 1.4461016e-38
-18.387407 35.224239 77.012192 1.6678749e-38
-17.196932 35.224239 77.012192 1.6675512e-38
-16.063826 35.350491 77.288223 1.5104585e-38
-14.815979 35.224239 77.012192 9.1201633e-39
-13.625504 35.224239 77.012192 1.114629e-38
-12.457272 35.287254 77.149963 1.758953e-38
-11.184633 35.036545 76.60183 1.2159724e-38
-9.7747946 34.245789 74.872963 7.5531795e-39
-8.8477983 35.161449 76.874916 3.5001941e-39
-7.7283244 35.47765 77.566238 3.9608093e-39
-6.552855 35.605728 77.84626 5.3441095e-39
-5.3982058 35.930008 78.555244 5.8050877e-39
-4.2145839 36.193714 79.131798 5.8972805e-39
-2.9587688 35.799591 78.270103 1.3263909e-38
-1.7648625 36.127426 78.986862 1.4186582e-38
-0.54586077 36.260246 79.27726 1.5570958e-38
0.67466867 35.995575 78.698593 1.3540499e-38
1.9016241 36.193714 79.131798 1.2709659e-38
3.1134403 36.061378 78.842461 1.2250122e-38
4.3401437 36.127426 78.986862 1.5198576e-38
5.5815902 36.260246 79.27726 1.7045372e-38
6.7697473 36.061378 78.842461 1.6581147e-38
8.0325708 36.260246 79.27726 9.7626488e-39
9.2580614 36.260246 79.27726 1.8332889e-38
10.388073 35.930008 78.555244 1.5013091e-38
11.666151 36.127426 78.986862 1.4372418e-38
12.887153 36.127426 78.986862 1.575393e-38
14.03106 35.930008 78.555244 1.4649718e-38
15.357282 36.193714 79.131798 1.2250829e-38
16.459719 35.930008 78.555244 1.1329973e-38
17.609894 35.799591 78.270103 1.4279505e-38
18.617088 35.413956 77.426979 1.685413e-38
19.672701 35.161449 76.874916 1.8789504e-38
20.676771 34.850838 76.195808 6.5390388e-39
22.247696 35.47765 77.566238 2.9495413e-39
23.832514 36.061378 78.842461 3.6845854e-39
25.376022 36.528843 79.864494 3.2261282e-39
26.512396 36.394047 79.569794 9.0312215e-39
27.640415 36.260246 79.27726 1.3356472e-38
28.865904 36.260246 79.27726 1.0966238e-38
30.091394 36.260246 79.27726 1.2620716e-38
31.145128 36.061378 78.842461 6.5404779e-39
32.602306 36.327023 79.423256 5.2508321e-39
33.767864 36.260246 79.27726 7.5542809e-39
35.0578 36.327023 79.423256 5.9855161e-39
36.086178 36.127426 78.986862 7.7390351e-39
37.791687 36.596611 80.012665 7.8297776e-39
38.812519 36.394047 79.569794 1.2626093e-38
39.968788 36.327023 79.423256 1.0320513e-38
41.196537 36.327023 79.423256 9.5818603e-39
42.268597 36.193714 79.131798 9.673323e-39
43.571789 36.260246 79.27726 8.1967622e-39
44.797279 36.260246 79.27726 8.4715569e-39
47.238464 37.218063 81.371376 6.3524895e-39
48.496326 37.218063 81.371376 4.9756675e-39
50.037418 37.429932 81.834587 7.8304923e-39
51.302441 37.429932 81.834587 9.3045433e-39
52.171474 37.147972 81.218132 1.0041385e-38
53.73053 37.359043 81.679596 1.0961177e-38
55.3074 37.572521 82.146339 1.0131064e-38
57.121254 37.933796 82.936211 1.0223962e-38
58.068298 37.716202 82.460472 1.1330312e-38
59.570797 37.860989 82.777023 1.1145568e-38
60.386768 37.572521 82.146339 1.243487e-38
61.774273 37.644226 82.303108 1.2894757e-38
63.653923 38.006886 83.096008 1.0409449e-38
64.44178 37.716202 82.460472 9.3949453e-39
66.222969 38.006886 83.096008 1.3079518e-38
67.63781 38.080257 83.256424 1.5935053e-38
-63.12513 35.464767 75.003181 3.779302e-39
-61.96571 35.464767 75.003181 3.963696e-39
-61.018528 35.588554 75.264969 3.6871119e-39
-60.595318 36.028694 76.195808 4.8856551e-39
-59.840359 36.285126 76.738129 4.0558917e-39
-58.342682 36.092461 76.330666 4.4246714e-39
-57.673122 36.414715 77.012192 4.5157936e-39
-56.181675 36.220676 76.60183 5.3473493e-39
-55.292171 36.414715 77.012192 4.7941756e-39
-54.295609 36.545235 77.288223 3.962973e-39
-53.387897 36.742775 77.705994 5.5310245e-39
-51.99931 36.610844 77.426979 4.8870844e-39
-50.985493 36.742775 77.705994 5.6203447e-39
-49.516636 36.545235 77.288223 6.1760198e-39
-48.321892 36.545235 77.288223 4.8842132e-39
-48.251282 37.416954 79.131798 5.0689548e-39
-47.028042 37.416954 79.131798 5.2529901e-39
-45.388393 37.076801 78.412415 4.7923679e-39
-43.699547 36.676693 77.566238 6.728123e-39
-42.886173 37.00951 78.270103 6.4515389e-39
-42.057903 37.348427 78.986862 6.3600593e-39
-40.987038 37.485737 79.27726 7.3720462e-39
-39.615902 37.348427 78.986862 6.8199669e-39
-38.394901 37.348427 78.986862 1.234916e-38
-36.703342 36.87566 77.98703 1.1699463e-38
-35.306263 36.676693 77.566238 1.547623e-38
-34.168674 36.742775 77.705994 1.2252285e-38
-32.79023 36.545235 77.288223 1.2158283e-38
-31.426527 36.349804 76.874916 1.2342306e-38
-30.238173 36.349804 76.874916 1.6026897e-38
-28.793196 36.028694 76.195808 1.0957214e-38
-27.615339 36.028694 76.195808 9.8573626e-39
-26.251957 35.77586 75.661102 1.3818525e-38
-25.304335 36.092461 76.330666 1.0872218e-38
-24.167166 36.156456 76.466003 9.9513477e-39
-22.86352 35.965153 76.061424 1.3266058e-38
-21.535812 35.713207 75.528595 8.9310791e-39
-20.657694 36.220676 76.60183 7.6471954e-39
-19.370344 36.028694 76.195808 8.8432275e-39
-18.033184 35.713207 75.528595 1.1517238e-38
-16.865643 35.713207 75.528595 9.2123589e-39
-15.808845 35.965153 76.061424 7.9226921e-39
-14.530558 35.713207 75.528595 1.0412326e-38
-13.457287 35.965153 76.061424 1.7223628e-38
-12.259886 35.901833 75.927513 1.7865031e-38
-10.932202 35.403194 74.872963 1.1421809e-38
-9.6574297 34.978115 73.973976 4.5111007e-39
-8.7696381 36.028694 76.195808 3.6849413e-39
-7.5917816 36.028694 76.195808 4.1455635e-39
-6.482646 36.414715 77.012192 4.4221504e-39
-5.2921696 36.414715 77.012192 4.8820468e-39
-4.116395 36.545235 77.288223 6.5401276e-39
-2.9112172 36.414715 77.012192 1.4368452e-38
-1.7207409 36.414715 77.012192 1.2619982e-38
-0.52837765 36.285126 76.738129 1.391144e-38
0.6602115 36.414715 77.012192 1.3819608e-38
1.8473887 36.349804 76.874916 1.2896936e-38
2.9878101 35.77586 75.661102 1.0687492e-38
4.1720395 35.901833 75.927513 1.1792395e-38
5.4221163 36.414715 77.012192 1.0687853e-38
6.5890603 36.285126 76.738129 1.3177487e-38
7.8030686 36.414715 77.012192 1.2345204e-38
9.0419846 36.610844 77.426979 1.2713615e-38
10.275769 36.742775 77.705994 1.3173876e-38
11.43576 36.610844 77.426979 1.0683878e-38
12.587451 36.479858 77.149963 9.1165661e-39
13.75545 36.414715 77.012192 1.0226145e-38
14.972663 36.479858 77.149963 8.0134528e-39
16.136402 36.414715 77.012192 1.4368099e-38
17.295992 36.349804 76.874916 1.0038506e-38
18.418684 36.220676 76.60183 1.6394235e-38
19.464525 35.965153 76.061424 1.9616753e-38
20.282585 35.341839 74.743202 9.9481149e-39
21.893307 36.092461 76.330666 3.1328465e-39
23.279259 36.414715 77.012192 3.8689767e-39
24.690184 36.742775 77.705994 3.8700585e-39
26.079344 37.00951 78.270103 7.0025603e-39
26.850689 36.414715 77.012192 9.4864137e-39
28.041164 36.414715 77.012192 9.6729713e-39
29.283934 36.479858 77.149963 6.8174333e-39
30.531157 36.545235 77.288223 9.0286893e-39
31.782858 36.610844 77.426979 7.4588371e-39
32.979748 36.610844 77.426979 1.050489e-38
34.054356 36.479858 77.149963 6.9096304e-39
35.82373 37.076801 78.412415 1.1147377e-38
36.968636 37.00951 78.270103 5.712162e-39
38.528179 37.348427 78.986862 1.2620712e-38
39.531971 37.144337 78.555244 8.658825e-39
40.820656 37.21212 78.698593 1.6215976e-38
41.657116 36.87566 77.98703 6.6305352e-39
43.332821 37.280148 78.842461 5.253346e-39
44.308578 37.076801 78.412415 4.2377508e-39
45.603619 37.144337 78.555244 5.1579092e-39
46.732822 37.076801 78.412415 8.2914704e-39
48.473747 37.485737 79.27726 1.4279859e-38
49.699238 37.485737 79.27726 1.0870427e-38
51.018513 37.554771 79.423256 8.381864e-39
52.150219 37.485737 79.27726 8.5641056e-39
53.671692 37.693607 79.716873 1.0405493e-38
55.005653 37.763409 79.864494 1.9259505e-38
56.240219 37.763409 79.864494 1.1604391e-38
57.368549 37.693607 79.716873 1.1974243e-38
58.277672 37.485737 79.27726 1.1883503e-38
59.176819 37.280148 78.842461 1.1420718e-38
60.840488 37.554771 79.423256 1.0684238e-38
62.413059 37.763409 79.864494 9.9506428e-39
63.884235 37.903793 80.161392 9.0279564e-39
64.405121 37.485737 79.27726 1.1054818e-38
-63.235104 36.687992 75.13385 4.3317555e-39
-61.220417 36.183689 74.101082 4.9767689e-39
-60.700722 36.560604 74.872963 4.423598e-39
-59.959702 36.816273 75.396553 5.3466333e-39
-59.208244 37.075542 75.927513 3.6860329e-39
-58.239605 37.206551 76.195808 3.7793076e-39
-57.162743 37.272404 76.330666 5.0686016e-39
-55.201191 36.752022 75.264969 4.6090654e-39
-54.900028 37.33849 76.466003 4.9771249e-39
-53.528179 37.206551 76.195808 6.7277516e-39
-52.257992 37.14093 76.061424 5.3437466e-39
-50.724369 36.880749 75.528595 5.4370324e-39
-49.99461 37.206551 76.195808 4.7948888e-39
-48.474178 36.945454 75.661102 5.6221412e-39
-47.977962 37.471367 76.738129 6.0838242e-39
-47.211758 37.807732 77.426979 5.2533558e-39
-46.09763 37.875732 77.566238 5.3455515e-39
-45.060677 38.01247 77.84626 4.423598e-39
-43.387409 37.60519 77.012192 3.964059e-39
-42.196934 37.60519 77.012192 5.1608001e-39
-40.933361 37.538158 76.874916 5.8990784e-39
-40.687862 38.428665 78.698593 6.9103562e-39
-39.043831 38.01247 77.84626 9.7651501e-39
-37.840462 38.01247 77.84626 1.2070761e-38
-36.244553 37.60519 77.012192 1.0038869e-38
-35.054073 37.60519 77.012192 1.2350949e-38
-33.924179 37.672462 77.149963 1.46472e-38
-32.156326 37.010384 75.794075 1.3356469e-38
-30.87615 36.880749 75.528595 1.3358263e-38
-29.86552 37.075542 75.927513 1.5387305e-38
-28.541065 36.880749 75.528595 1.1977865e-38
-27.373524 36.880749 75.528595 1.068639e-38
-25.978498 36.560604 74.872963 1.317352e-38
-24.864258 36.624187 75.003181 1.2530665e-38
-23.829165 36.816273 75.396553 1.0689999e-38
-22.506277 36.560604 74.872963 8.9346846e-39
-21.348869 36.560604 74.872963 7.4613608e-39
-20.226578 36.624187 75.003181 6.6323274e-39
-19.067156 36.624187 75.003181 8.6570271e-39
-17.876646 36.560604 74.872963 8.1078204e-39
-16.719238 36.560604 74.872963 8.0123738e-39
-15.561831 36.560604 74.872963 7.2769724e-39
-14.37946 36.497242 74.743202 7.8297776e-39
-13.11045 36.183689 74.101082 9.5757324e-39
-11.985568 36.245968 74.228622 9.5768002e-39
-10.672794 35.693062 73.096321 9.1198003e-39
-9.4785891 35.452705 72.604088 3.9593688e-39
-8.6173868 36.560604 74.872963 3.2246862e-39
-7.5517545 37.010384 75.794075 3.5934716e-39
-6.3577614 36.880749 75.528595 4.2377592e-39
-5.1902189 36.880749 75.528595 4.5147006e-39
-4.0368161 37.010384 75.794075 6.173859e-39
-2.8352723 36.624187 75.003181 1.2620338e-38
-1.6758521 36.624187 75.003181 1.2159724e-38
-0.52557212 37.272404 76.330666 1.1790588e-38
0.64862883 36.945454 75.661102 1.0593854e-38
1.8118621 36.816273 75.396553 1.087079e-38
2.9773633 36.816273 75.396553 1.0409812e-38
4.1428647 36.816273 75.396553 9.8562836e-39
5.3269916 36.945454 75.661102 9.2109198e-39
6.496582 36.945454 75.661102 9.212712e-39
7.666173 36.945454 75.661102 9.8562892e-39
8.8202896 36.880749 75.528595 8.3843933e-39
10.111794 37.33849 76.466003 8.5673538e-39
11.155374 36.880749 75.528595 1.0683889e-38
12.453779 37.272404 76.330666 1.1235975e-38
13.514126 36.945454 75.661102 1.2254449e-38
14.761409 37.14093 76.061424 1.2710001e-38
15.853308 36.945454 75.661102 6.6326763e-39
17.112967 37.14093 76.061424 1.593326e-38
18.09724 36.752022 75.264969 1.5924974e-38
19.02825 36.30846 74.356598 1.8881708e-38
19.869358 35.753662 73.220421 1.1603312e-38
21.072775 35.875481 73.469894 3.4076342e-39
22.951384 37.075542 75.927513 4.6076235e-39
24.125092 37.075542 75.927513 4.0544525e-39
25.660212 37.60519 77.012192 5.7092949e-39
26.613071 37.272404 76.330666 1.4188394e-38
27.842291 37.33849 76.466003 1.4923445e-38
28.972954 37.272404 76.330666 6.5386856e-39
30.313852 37.471367 76.738129 7.7390239e-39
31.556242 37.538158 76.874916 7.924134e-39
32.570423 37.33849 76.466003 6.2653386e-39
33.63319 37.206551 76.195808 6.171715e-39
34.566757 36.945454 75.661102 1.132852e-38
35.988903 37.206551 76.195808 7.7383008e-39
37.498013 37.538158 76.874916 6.1720639e-39
38.075531 36.945454 75.661102 7.0940174e-39
40.089104 37.739979 77.288223 4.8827684e-39
41.283844 37.739979 77.288223 5.0668038e-39
42.402599 37.672462 77.149963 7.5564277e-39
43.517357 37.60519 77.012192 5.71072e-39
44.707832 37.60519 77.012192 8.0156136e-39
45.980415 37.672462 77.149963 1.584499e-38
47.427551 37.875732 77.566238 8.8352723e-39
48.802139 38.01247 77.84626 1.0319048e-38
50.277771 38.219433 78.270103 1.1516515e-38
51.116611 37.943977 77.705994 1.0131064e-38
52.129955 37.807732 77.426979 6.8120383e-39
53.519012 37.943977 77.705994 1.1055906e-38
54.720215 37.943977 77.705994 1.694991e-38
56.843197 38.569427 78.986862 1.4740483e-38
57.5373 38.219433 78.270103 1.3812041e-38
58.218918 37.875732 77.566238 1.050092e-38
60.175568 38.358665 78.555244 1.0866823e-38
61.95414 38.711227 79.27726 9.8551962e-39
63.765713 39.070328 80.012665 1.0315811e-38
64.169205 38.569427 78.986862 1.0777876e-38
-62.365891 37.329166 74.101082 4.0548127e-39
-60.084793 36.636719 72.726524 4.8838573e-39
-58.527218 37.07436 73.595268 3.7789502e-39
-58.487446 37.783607 75.003181 3.9626198e-39
-57.030476 37.587498 74.613892 4.7923805e-39
-56.071091 37.71801 74.872963 5.2533558e-39
-54.723671 37.587498 74.613892 4.3335603e-39
-53.756279 37.71801 74.872963 6.2693196e-39
-52.782143 37.849434 75.13385 4.8856495e-39
-51.620701 37.849434 75.13385 4.8849292e-39
-50.724369 38.04829 75.528595 4.7012583e-39
-49.470192 37.981773 75.396553 6.0816774e-39
-48.052666 37.783607 75.003181 4.3314023e-39
-46.811832 37.71801 74.872963 6.2675106e-39
-45.575302 37.652641 74.743202 6.5437289e-39
-44.497017 37.71801 74.872963 7.005063e-39
-43.49062 37.849434 75.13385 5.5285008e-39
-42.403053 37.915485 75.264969 5.6221384e-39
-41.239586 37.915485 75.264969 5.527419e-39
-40.006298 37.849434 75.13385 7.741549e-39
-40.539906 39.501045 78.412415 7.4664041e-39
-39.256409 39.429356 78.270103 8.2943725e-39
-37.169529 38.520523 76.466003 8.1096127e-39
-35.860332 38.384407 76.195808 1.0133949e-38
-34.805466 38.520523 76.466003 1.0320499e-38
-33.211235 38.04829 75.528595 7.9241312e-39
-31.765535 37.71801 74.872963 1.0872222e-38
-30.822172 37.981773 75.396553 9.7666047e-39
-29.348816 37.587498 74.613892 1.0777507e-38
-27.810492 37.07436 73.595268 1.2713258e-38
-26.810089 37.265137 73.973976 7.8301405e-39
-25.888607 37.587498 74.613892 7.1826103e-39
-24.649912 37.457886 74.356598 1.53891e-38
-23.180752 36.948254 73.344948 9.3016693e-39
-22.389664 37.522579 74.485023 9.3971201e-39
-21.165144 37.393414 74.228622 1.0502732e-38
-19.983303 37.329166 74.101082 7.462451e-39
-18.968193 37.587498 74.613892 5.0668038e-39
-17.753359 37.457886 74.356598 7.3702526e-39
-16.575356 37.393414 74.228622 8.6635053e-39
-15.322419 37.137733 73.721077 7.0029008e-39
-14.207104 37.201324 73.847305 1.0226145e-38
-13.065551 37.201324 73.847305 6.0795026e-39
-11.743027 36.636719 72.726524 1.0686047e-38
-10.460047 36.088993 71.639252 8.6595411e-39
-9.4151869 36.330391 72.118439 3.0402978e-39
-8.4848118 37.137733 73.721077 3.040295e-39
-7.4341669 37.587498 74.613892 3.8700585e-39
-6.3025723 37.71801 74.872963 3.9622513e-39
-5.145165 37.71801 74.872963 4.9753242e-39
-3.9946928 37.783607 75.003181 5.1597183e-39
-2.8205564 37.587498 74.613892 9.209824e-39
-1.6585455 37.393414 74.228622 7.4606335e-39
-0.51197976 37.457886 74.356598 8.1056512e-39
0.63965124 37.587498 74.613892 6.1709989e-39
1.7992797 37.71801 74.872963 6.3579083e-39
2.9413676 37.522579 74.485023 9.3049189e-39
4.1356344 37.915485 75.264969 9.2130778e-39
5.2623658 37.652641 74.743202 9.8598905e-39
6.4177675 37.652641 74.743202 9.7666033e-39
7.5339975 37.457886 74.356598 7.8308664e-39
8.7437239 37.71801 74.872963 8.289688e-39
9.8668718 37.587498 74.613892 1.0316897e-38
11.001241 37.522579 74.485023 1.4916945e-38
12.215946 37.71801 74.872963 9.6740559e-39
13.350177 37.652641 74.743202 8.4762358e-39
14.505578 37.652641 74.743202 6.8174347e-39
15.715453 37.783607 75.003181 1.2069322e-38
16.758293 37.522579 74.485023 1.3910348e-38
17.878826 37.457886 74.356598 1.565594e-38
18.674088 36.7607 72.972633 1.6761938e-38
19.702108 36.575039 72.604088 1.436701e-38
20.824442 36.575039 72.604088 4.8813223e-39
22.28442 37.137733 73.721077 3.1328564e-39
23.585287 37.393414 74.228622 3.7793048e-39
24.904192 37.652641 74.743202 5.8954784e-39
26.059593 37.652641 74.743202 9.3045573e-39
27.357233 37.849434 75.13385 9.4882311e-39
28.419651 37.71801 74.872963 5.9858678e-39
29.577059 37.71801 74.872963 5.6188873e-39
30.949392 37.981773 75.396553 6.4500914e-39
32.002995 37.849434 75.13385 9.4885857e-39
33.049282 37.71801 74.872963 6.3564524e-39
34.325874 37.849434 75.13385 6.5404807e-39
35.92543 38.316708 76.061424 6.1731373e-39
36.648754 37.849434 75.13385 6.0813088e-39
37.876183 37.915485 75.264969 6.2624547e-39
39.592422 38.452343 76.330666 5.5274162e-39
40.700329 38.384407 76.195808 6.6305155e-39
41.584301 38.115044 75.661102 6.0777075e-39
43.285469 38.588943 76.60183 1.0687478e-38
44.469601 38.588943 76.60183 8.1074323e-39
45.653732 38.588943 76.60183 1.2622155e-38
46.67207 38.452343 76.330666 1.2800424e-38
47.852009 38.452343 76.330666 1.3357174e-38
49.381554 38.726513 76.874916 1.1975693e-38
50.569908 38.726513 76.874916 1.1144132e-38
51.574398 38.588943 76.60183 7.7364918e-39
53.136051 38.86507 77.149963 1.1785542e-38
54.23164 38.79567 77.012192 1.7773907e-38
55.323326 38.726513 76.874916 1.1144856e-38
57.122616 39.14518 77.705994 1.603195e-38
57.597366 38.657604 76.738129 1.8054111e-38
59.311287 39.004623 77.426979 1.0131769e-38
60.726219 39.14518 77.705994 1.4188026e-38
61.265095 38.726513 76.874916 1.0592397e-38
62.789223 38.934719 77.288223 9.4878556e-39
-62.580948 38.607311 74.356598 4.2395598e-39
-60.802528 38.212017 73.595268 3.1328564e-39
-59.060162 37.82473 72.849373 2.6729544e-39
-57.934036 37.82473 72.849373 3.7785817e-39
-57.389561 38.212017 73.595268 4.1484502e-39
-56.156075 38.146919 73.469894 4.1480873e-39
-55.020355 38.146919 73.469894 4.5175887e-39
-53.976589 38.212017 73.595268 5.715413e-39
-52.74892 38.146919 73.469894 4.2399284e-39
-51.878338 38.342876 73.847305 4.1473642e-39
-51.620701 39.010872 75.13385 3.3172504e-39
-50.196907 38.808044 74.743202 3.962617e-39
-49.212086 38.943027 75.003181 5.1615133e-39
-47.231251 38.277336 73.721077 6.6359245e-39
-46.249771 38.408646 73.973976 6.452255e-39
-44.87534 38.212017 73.595268 5.2544376e-39
-43.962749 38.408646 73.973976 5.1615133e-39
-42.819237 38.408646 73.973976 4.7923777e-39
-41.747334 38.47464 74.101082 4.2388438e-39
-40.812233 38.673992 74.485023 5.1593553e-39
-39.524296 38.540863 74.228622 6.8192396e-39
-38.310909 38.47464 74.101082 7.0961782e-39
-37.293591 38.607311 74.356598 7.4638789e-39
-36.778271 39.284634 75.661102 1.0041382e-38
-35.546318 39.215832 75.528595 8.1070791e-39
-34.021286 38.808044 74.743202 8.6613459e-39
-32.471943 38.342876 73.847305 8.0156108e-39
-31.492167 38.540863 74.228622 1.2347352e-38
-30.188839 38.342876 73.847305 1.0318698e-38
-28.654755 37.82473 72.849373 1.1978219e-38
-27.482206 37.760944 72.726524 1.1423598e-38
-26.313606 37.697376 72.604088 5.5277707e-39
-25.276377 37.82473 72.849373 9.6740447e-39
-24.191114 37.888733 72.972633 1.2712898e-38
-22.946602 37.697376 72.604088 9.3988942e-39
-21.897999 37.82473 72.849373 1.3821775e-38
-20.771872 37.82473 72.849373 1.4279505e-38
-19.612617 37.760944 72.726524 8.3829542e-39
-18.519621 37.82473 72.849373 7.0940202e-39
-17.33493 37.697376 72.604088 9.7644425e-39
-16.294893 37.888733 72.972633 7.5510313e-39
-15.090261 37.697376 72.604088 7.9237669e-39
-13.967927 37.697376 72.604088 8.198207e-39
-12.738367 37.382706 71.998047 6.6337637e-39
-11.434507 36.768867 70.815811 8.3836688e-39
-10.272346 36.528942 70.353714 7.7382966e-39
-9.2603321 36.829342 70.932281 2.9484553e-39
-8.3986721 37.888733 72.972633 3.1324934e-39
-7.2461185 37.760944 72.726524 5.3451857e-39
-6.1426086 37.888733 72.972633 5.1611504e-39
-5.0230761 37.95295 73.096321 5.6196118e-39
-3.8931327 37.95295 73.096321 6.7248748e-39
-2.753854 37.82473 72.849373 1.4277712e-38
-1.6277279 37.82473 72.849373 1.0225058e-38
-0.50160176 37.82473 72.849373 1.0780036e-38
0.62877285 38.082043 73.344948 1.2531742e-38
1.7506505 37.82473 72.849373 8.2875215e-39
2.8816442 37.888733 72.972633 1.0135037e-38
4.0857215 38.607311 74.356598 9.7658844e-39
5.1377077 37.888733 72.972633 1.3634138e-38
6.2551551 37.82473 72.849373 9.0250824e-39
7.3937707 37.888733 72.972633 1.851328e-38
8.5507393 38.017387 73.220421 1.0414491e-38
9.6661892 37.95295 73.096321 7.6446675e-39
10.796133 37.95295 73.096321 1.2065031e-38
11.987028 38.146919 73.469894 9.671528e-39
13.122746 38.146919 73.469894 9.8523193e-39
14.210049 38.017387 73.220421 1.3543005e-38
15.579974 38.607311 74.356598 1.0132862e-38
16.643314 38.408646 73.973976 1.5936141e-38
17.516417 37.82473 72.849373 1.132852e-38
18.548546 37.634018 72.482063 1.5839626e-38
19.375914 37.073246 71.402031 1.7959754e-38
20.344933 36.829342 70.932281 8.1060029e-39
21.983786 37.760944 72.726524 3.1324906e-39
23.264944 38.017387 73.220421 3.3172504e-39
24.396807 38.017387 73.220421 3.9622569e-39
25.615648 38.146919 73.469894 7.1883753e-39
26.93491 38.408646 73.973976 1.2066088e-38
27.792393 38.017387 73.220421 7.9234292e-39
29.022802 38.146919 73.469894 4.790933e-39
30.209986 38.212017 73.595268 6.1727912e-39
31.563091 38.47464 74.101082 7.4624398e-39
32.59655 38.342876 73.847305 7.0936573e-39
33.738102 38.342876 73.847305 7.0943734e-39
34.760612 38.212017 73.595268 6.8170704e-39
35.959633 38.277336 73.721077 5.8050737e-39
37.483681 38.673992 74.485023 6.8145579e-39
38.836319 38.87542 74.872963 8.3833059e-39
40.063278 38.943027 75.003181 9.3063272e-39
41.511475 39.215832 75.528595 6.6316029e-39
43.056042 39.562263 76.195808 1.1792746e-38
44.155884 39.492489 76.061424 1.1237047e-38
45.411755 39.562263 76.195808 1.3913232e-38
46.837868 39.773075 76.60183 1.2434868e-38
48.021999 39.773075 76.60183 1.1515797e-38
48.945324 39.562263 76.195808 1.142432e-38
50.300919 39.702557 76.466003 1.0686033e-38
51.574398 39.773075 76.60183 9.9484708e-39
53.231277 40.129463 77.288223 1.0592398e-38
54.038647 39.843845 76.738129 1.4548502e-38
54.449799 39.284634 75.661102 1.5569131e-38
55.521984 39.215832 75.528595 1.0962634e-38
57.700035 39.914867 76.874916 1.7875489e-38
58.575153 39.702557 76.466003 1.3817086e-38
59.651421 39.632286 76.330666 1.1513264e-38
60.192154 39.215832 75.528595 1.0404054e-38
61.359695 39.215832 75.528595 1.0042461e-38
-61.312412 38.950859 72.849373 3.2254079e-39
-60.595718 39.215828 73.344948 4.0548155e-39
-59.160095 39.016766 72.972633 4.0551686e-39
-57.934036 38.950859 72.849373 3.8707773e-39
-56.807911 38.950859 72.849373 5.1626035e-39
-54.926785 39.215828 73.344948 4.2410018e-39
-53.610649 39.082893 73.096321 4.5157908e-39
-52.65921 39.215828 73.344948 4.5161467e-39
-51.17728 38.950859 72.849373 5.3455417e-39
-50.051151 38.950859 72.849373 5.3451857e-39
-49.007809 39.016766 72.972633 6.4515333e-39
-47.96093 39.082893 73.096321 5.5310217e-39
-46.43745 38.754467 72.482063 6.4515361e-39
-45.546646 38.950859 72.849373 5.8061639e-39
-44.345615 38.885174 72.726524 5.2519167e-39
-43.00383 38.689442 72.360451 5.1615161e-39
-41.815102 38.624638 72.239243 5.8068855e-39
-40.226738 38.176998 71.402031 5.9891118e-39
-39.916016 38.950859 72.849373 6.7281258e-39
-38.78989 38.950859 72.849373 7.0029008e-39
-37.410988 38.689442 72.360451 7.9223418e-39
-36.476025 38.885174 72.726524 6.6337694e-39
-35.591877 39.14925 73.220421 6.6337637e-39
-34.460014 39.14925 73.220421 8.0138185e-39
-33.15926 38.950859 72.849373 8.2936396e-39
-31.818146 38.689442 72.360451 8.2025258e-39
-30.751175 38.754467 72.482063 7.6482674e-39
-29.581011 38.689442 72.360451 9.2145211e-39
-28.085455 38.176998 71.402031 1.1710674e-38
-27.206926 38.49567 71.998047 8.5702293e-39
-25.877951 38.176998 71.402031 6.726681e-39
-24.815283 38.240311 71.520447 6.8174333e-39
-23.868027 38.49567 71.998047 8.0170499e-39
-22.604116 38.240311 71.520447 7.2762549e-39
-21.321735 37.925835 70.932281 1.2527768e-38
-20.359186 38.176998 71.402031 8.1085211e-39
-19.481209 38.624638 72.239243 1.3911085e-38
-18.181784 38.240311 71.520447 9.4871409e-39
-16.963671 37.988316 71.049141 7.7390379e-39
-15.944175 38.176998 71.402031 1.465115e-38
-14.840423 38.176998 71.402031 5.7107228e-39
-13.691334 38.051003 71.166382 7.4645978e-39
-12.467781 37.677952 70.468674 5.435938e-39
-11.177552 37.012691 69.224442 7.3706071e-39
-10.059023 36.835316 68.8927 5.4344877e-39
-9.275588 37.988316 71.049141 2.9480994e-39
-8.3282127 38.689442 72.360451 3.3172476e-39
-7.1975684 38.624638 72.239243 4.5154279e-39
-6.0707049 38.560047 72.118439 5.6221285e-39
-4.9558778 38.560047 72.118439 5.7107341e-39
-3.85394 38.689442 72.360451 7.6490003e-39
-2.7445819 38.81971 72.604088 7.4591888e-39
-1.6277279 38.950859 72.849373 1.0041052e-38
-0.50075591 38.885174 72.726524 1.1237063e-38
0.62033296 38.689442 72.360451 1.0681004e-38
1.7359885 38.624638 72.239243 9.8588185e-39
2.8149617 38.113895 71.284012 1.1795634e-38
3.9693778 38.624638 72.239243 1.7966992e-38
5.043829 38.303833 71.639252 9.6733287e-39
6.141048 38.240311 71.520447 9.9481149e-39
7.3317423 38.689442 72.360451 1.0228309e-38
8.5074072 38.950859 72.849373 1.0225423e-38
9.5688791 38.689442 72.360451 1.5109617e-38
10.741515 38.885174 72.726524 1.3544463e-38
11.885786 38.950859 72.849373 1.4461732e-38
13.011912 38.950859 72.849373 1.2062859e-38
14.090435 38.81971 72.604088 1.0682802e-38
15.264164 38.950859 72.849373 7.0007344e-39
16.198751 38.49567 71.998047 6.4501054e-39
17.369713 38.624638 72.239243 7.3670044e-39
18.272161 38.176998 71.402031 1.4738316e-38
19.216835 37.86356 70.815811 1.7684607e-38
19.887007 37.072197 69.335739 1.0223263e-38
20.958818 37.072197 69.335739 3.7764209e-39
23.108013 38.885174 72.726524 3.3186797e-39
24.232241 38.885174 72.726524 3.5934744e-39
25.31378 38.81971 72.604088 4.7923805e-39
26.480696 38.885174 72.726524 5.8043744e-39
27.604921 38.885174 72.726524 9.3963872e-39
28.536659 38.624638 72.239243 6.4486396e-39
29.853376 38.885174 72.726524 5.528498e-39
31.082434 39.016766 72.972633 8.4729988e-39
32.26506 39.082893 73.096321 5.8969162e-39
33.282185 38.950859 72.849373 5.1586337e-39
34.17738 38.689442 72.360451 4.5136328e-39
35.534435 38.950859 72.849373 4.5132671e-39
36.972832 39.282635 73.469894 6.2656987e-39
38.108551 39.282635 73.469894 7.7401141e-39
39.111012 39.14925 73.220421 7.0943734e-39
40.03894 38.950859 72.849373 8.3833059e-39
41.374737 39.14925 73.220421 9.4885829e-39
42.944057 39.552158 73.973976 1.2718303e-38
43.787144 39.282635 73.469894 1.0130701e-38
45.940277 40.172314 75.13385 1.3911071e-38
46.374588 39.552158 73.973976 1.1792392e-38
47.274834 39.34967 73.595268 9.3059965e-39
48.66161 39.552158 73.973976 1.1051565e-38
50.498062 40.102448 75.003181 1.0960088e-38
51.567799 40.032825 74.872963 1.1057692e-38
52.633827 39.963444 74.743202 1.5014198e-38
53.511009 39.756737 74.356598 1.4001839e-38
55.04002 40.032825 74.872963 1.5201108e-38
56.393238 40.172314 75.13385 9.5786093e-39
57.958572 40.454224 75.661102 1.806922e-38
58.818592 40.24242 75.264969 1.1973524e-38
60.086922 40.312775 75.396553 1.648821e-38
60.932846 40.102448 75.003181 1.0133228e-38
-60.798908 39.741329 72.239243 3.6871119e-39
-59.482941 39.608639 71.998047 3.410525e-39
-58.861305 39.942043 72.604088 3.5949163e-39
-57.738972 39.942043 72.604088 4.5168726e-39
-56.23793 39.674873 72.118439 4.3317555e-39
-54.575523 39.28075 71.402031 4.6998219e-39
-54.098743 39.741329 72.239243 4.7005352e-39
-53.249634 39.942043 72.604088 4.515781e-39
-51.952374 39.80801 72.360451 5.1611602e-39
-50.494915 39.542625 71.878044 5.6221384e-39
-49.631962 39.741329 72.239243 5.5306672e-39
-48.434139 39.674873 72.118439 5.8079716e-39
-47.240314 39.608639 71.998047 5.6199776e-39
-46.204487 39.674873 72.118439 5.5302987e-39
-45.701042 40.212837 73.096321 6.3593377e-39
-42.828907 38.640999 70.239136 7.003984e-39
-42.224518 39.086613 71.049141 7.1894669e-39
-41.058578 39.022327 70.932281 5.7146871e-39
-39.962086 39.022327 70.932281 7.6479157e-39
-38.801777 38.958248 70.815811 7.0068679e-39
-37.893753 39.151112 71.166382 8.3840402e-39
-36.793644 39.151112 71.166382 8.6620704e-39
-36.414616 39.942043 72.604088 8.4783938e-39
-35.232967 39.874916 72.482063 7.8312195e-39
-33.941387 39.674873 72.118439 6.5408464e-39
-32.826557 39.674873 72.118439 6.909629e-39
-31.711731 39.674873 72.118439 8.5691475e-39
-30.393602 39.411251 71.639252 7.3716861e-39
-29.189209 39.28075 71.402031 6.9092744e-39
-28.039034 39.215824 71.284012 6.5415877e-39
-26.716309 38.894382 70.699715 7.4638789e-39
-25.581476 38.830727 70.584007 5.4355863e-39
-24.61121 39.022327 70.932281 5.6210495e-39
-23.361027 38.767277 70.468674 7.5549956e-39
-22.381414 38.958248 70.815811 6.5437317e-39
-21.217047 38.830727 70.584007 5.7107312e-39
-20.125938 38.830727 70.584007 1.0046087e-38
-19.034832 38.830727 70.584007 9.5793352e-39
-18.06197 39.086613 71.049141 1.0876926e-38
-16.880243 38.894382 70.699715 7.0021777e-39
-15.761509 38.830727 70.584007 7.8340992e-39
-14.64643 38.767277 70.468674 8.6638781e-39
-13.691334 39.151112 71.166382 6.1735045e-39
-12.228016 38.021755 69.11351 5.1575491e-39
-10.914757 37.18742 67.596909 6.6344854e-39
-9.8543797 37.129223 67.491127 4.23559e-39
-9.1698399 38.640999 70.239136 3.041011e-39
-8.1370735 38.894382 70.699715 4.4225064e-39
-7.0673494 39.022327 70.932281 5.5285008e-39
-5.9610538 38.958248 70.815811 6.4515389e-39
-4.8743668 39.022327 70.932281 6.3575286e-39
-3.7778754 39.022327 70.932281 8.5655476e-39
-2.6769812 38.958248 70.815811 1.6673343e-38
-1.5901237 39.151112 71.166382 1.225408e-38
-0.4900136 39.151112 71.166382 1.3541942e-38
0.60709101 38.958248 70.815811 1.1328545e-38
1.7045808 39.022327 70.932281 9.5796967e-39
2.7964725 38.958248 70.815811 1.382465e-38
3.9298813 39.345894 71.520447 1.0593854e-38
4.9940543 39.022327 70.932281 7.2780429e-39
6.0507383 38.767277 70.468674 1.2066812e-38
7.1988773 39.086613 71.049141 1.0596361e-38
8.4220486 39.674873 72.118439 9.4903877e-39
9.5688791 39.80801 72.360451 1.2802582e-38
10.651703 39.674873 72.118439 1.3915407e-38
11.825857 39.874916 72.482063 1.0316177e-38
12.902935 39.741329 72.239243 1.465549e-38
13.880131 39.345894 71.520447 1.4276619e-38
14.911527 39.151112 71.166382 9.4857004e-39
15.906643 38.894382 70.699715 6.9096262e-39
16.999538 38.894382 70.699715 9.4882087e-39
18.062824 38.830727 70.584007 1.2619983e-38
18.906385 38.328876 69.671776 1.648751e-38
19.665689 37.719513 68.564117 1.0774632e-38
20.529741 37.36311 67.916267 3.9600905e-39
22.390608 38.767277 70.468674 3.5949107e-39
23.712408 39.151112 71.166382 3.7785817e-39
24.812517 39.151112 71.166382 3.6845882e-39
26.128206 39.47683 71.758446 1.031906e-38
27.419964 39.741329 72.239243 7.0918594e-39
28.299644 39.411251 71.639252 1.2253006e-38
29.309689 39.28075 71.402031 7.5528404e-39
30.821676 39.80801 72.360451 7.1844222e-39
31.940245 39.80801 72.360451 7.7404686e-39
33.003437 39.741329 72.239243 8.7520996e-39
33.724701 39.28075 71.402031 6.3564552e-39
35.119175 39.608639 71.998047 7.9223362e-39
36.660561 40.076984 72.849373 7.2748059e-39
37.596165 39.874916 72.482063 6.7252349e-39
38.651653 39.80801 72.360451 8.8468134e-39
39.97142 40.009399 72.726524 9.3052622e-39
41.095646 40.009399 72.726524 1.1332144e-38
42.578888 40.349617 73.344948 9.9463128e-39
43.638458 40.281113 73.220421 1.0319044e-38
44.543446 40.076984 72.849373 9.397818e-39
45.5158 39.942043 72.604088 1.7232979e-38
46.795696 40.076984 72.849373 1.4740834e-38
48.330017 40.418354 73.469894 1.3078068e-38
49.805122 40.695667 73.973976 1.3356813e-38
51.124016 40.835754 74.228622 8.4758869e-39
52.361584 40.906162 74.356598 1.1049056e-38
53.882614 41.190231 74.872963 1.0313649e-38
55.04002 41.190231 74.872963 1.0406566e-38
56.002975 41.047707 74.613892 1.1883486e-38
57.255436 41.118847 74.743202 8.3829514e-39
58.512245 41.190231 74.872963 2.2220566e-38
59.360481 40.97681 74.485023 1.3348181e-38
59.789055 40.487328 73.595268 1.5192444e-38
-57.375656 39.278973 69.447388 4.2392039e-39
-56.944 39.726776 70.239136 4.2410018e-39
-56.409454 40.118816 70.932281 4.424677e-39
-55.312965 40.118816 70.932281 5.529577e-39
-54.395405 40.251225 71.166382 4.7931022e-39
-53.207493 40.18491 71.049141 5.437031e-39
-51.852921 39.987282 70.699715 5.9920027e-39
-50.843376 40.05294 70.815811 5.6206992e-39
-50.077602 40.317753 71.284012 5.1615105e-39
-48.734016 40.118816 70.932281 5.0700464e-39
-47.637527 40.118816 70.932281 5.6206964e-39
-46.541035 40.118816 70.932281 6.5426499e-39
-45.444542 40.118816 70.932281 5.8951085e-39
-44.348053 40.118816 70.932281 6.7263279e-39
-42.898773 39.791584 70.353714 6.5433604e-39
-41.811226 39.791584 70.353714 6.5419339e-39
-40.723679 39.791584 70.353714 6.0816774e-39
-39.4431 39.597794 70.011086 7.7393896e-39
-38.548584 39.791584 70.353714 7.1869403e-39
-37.58366 39.921833 70.584007 6.729918e-39
-36.255199 39.662182 70.124924 8.3858521e-39
-35.752533 40.317753 71.284012 7.5564375e-39
-34.82328 40.518673 71.639252 6.910708e-39
-33.715862 40.518673 71.639252 7.6468311e-39
-32.0233 39.791584 70.353714 8.015608e-39
-30.885366 39.726776 70.239136 6.3571769e-39
-29.945906 39.921833 70.584007 7.0965342e-39
-28.527964 39.469646 69.784508 7.8315867e-39
-27.628038 39.726776 70.239136 7.2794877e-39
-26.243073 39.278973 69.447388 7.7375848e-39
-25.048529 39.09013 69.11351 7.0018246e-39
-23.980152 39.09013 69.11351 4.6998219e-39
-22.911776 39.09013 69.11351 7.4642461e-39
-21.808451 39.027584 69.002922 7.1869375e-39
-20.875387 39.278973 69.447388 7.0951076e-39
-19.801849 39.278973 69.447388 6.7263279e-39
-18.66819 39.152874 69.224442 6.4493781e-39
-17.598099 39.152874 69.224442 6.5415681e-39
-16.528008 39.152874 69.224442 5.9887517e-39
-15.310464 38.779396 68.564117 6.1717094e-39
-14.364768 39.09013 69.11351 3.6845854e-39
-13.16976 38.717842 68.455284 5.2515482e-39
-11.922316 38.112877 67.385666 5.4355863e-39
-10.762929 37.700527 66.656609 6.6330435e-39
-9.7778702 37.876152 66.967125 3.2235988e-39
-9.0664759 39.278973 69.447388 2.9480994e-39
-8.070919 39.662182 70.124924 3.5012759e-39
-6.9982872 39.726776 70.239136 5.0671597e-39
-5.9125109 39.726776 70.239136 5.8983651e-39
-4.8346086 39.791584 70.353714 6.0816774e-39
-3.6869154 39.152874 69.224442 1.4647565e-38
-2.6595132 39.791584 70.353714 1.7045002e-38
-1.5745342 39.856602 70.468674 1.4276975e-38
-0.48441803 39.791584 70.353714 1.6397471e-38
0.59632003 39.342323 69.559402 1.0407302e-38
1.6742893 39.405884 69.671776 1.1329613e-38
2.7782247 39.791584 70.353714 7.7375932e-39
3.8784263 39.921833 70.584007 8.0152577e-39
4.95332 39.791584 70.353714 7.8294273e-39
6.0017047 39.533615 69.897614 1.3909293e-38
7.093699 39.597794 70.011086 1.0683525e-38
8.2025814 39.726776 70.239136 9.4911066e-39
9.2732553 39.662182 70.124924 9.8566269e-39
10.357266 39.662182 70.124924 1.6027971e-38
11.349009 39.342323 69.559402 1.7971259e-38
12.545687 39.726776 70.239136 2.1567633e-38
13.676011 39.856602 70.468674 9.9509917e-39
14.71724 39.726776 70.239136 9.5782449e-39
15.675366 39.405884 69.671776 1.713934e-38
16.671574 39.21582 69.335739 1.0777527e-38
17.714905 39.152874 69.224442 7.7365142e-39
18.488234 38.534348 68.130852 1.5106386e-38
19.418711 38.292374 67.703026 1.4642873e-38
20.337574 38.053417 67.28054 6.3539314e-39
21.924883 39.027584 69.002922 3.7767866e-39
23.102442 39.21582 69.335739 4.239557e-39
24.213181 39.278973 69.447388 4.4235952e-39
25.575003 39.726776 70.239136 4.6998191e-39
26.402773 39.342323 69.559402 1.1234882e-38
27.97436 40.05294 70.815811 1.1886388e-38
29.309689 40.384506 71.402031 8.2903914e-39
30.065006 39.921833 70.584007 8.0184877e-39
31.309845 40.118816 70.932281 3.4079985e-39
32.406338 40.118816 70.932281 7.5553487e-39
33.447815 40.05294 70.815811 6.2635407e-39
34.713509 40.251225 71.166382 6.0805928e-39
35.813618 40.251225 71.166382 7.0940202e-39
36.974743 40.317753 71.284012 6.2657001e-39
38.139709 40.384506 71.402031 7.001826e-39
38.985283 40.118816 70.932281 9.0279705e-39
39.950359 39.987282 70.699715 1.0960839e-38
41.45097 40.384506 71.402031 9.3949411e-39
42.344402 40.18491 71.049141 1.3818878e-38
43.37125 40.118816 70.932281 1.3819957e-38
44.467739 40.118816 70.932281 1.520288e-38
46.248837 40.721603 71.998047 1.4282014e-38
47.441002 40.7897 72.118439 1.3728846e-38
48.474766 40.721603 71.998047 1.3168128e-38
49.753857 40.858025 72.239243 9.6704518e-39
51.649181 41.483402 73.344948 7.3734728e-39
53.603428 42.128223 74.485023 1.0775346e-38
54.660435 42.055588 74.356598 1.4460272e-38
54.957077 41.412971 73.220421 1.2894038e-38
56.861248 41.983204 74.228622 1.0499133e-38
58.008698 41.983204 74.228622 1.7410178e-38
59.258137 42.055588 74.356598 2.2399923e-38
59.789055 41.624985 73.595268 1.3164866e-38
-58.732925 40.548393 69.784508 3.8704214e-39
-57.099812 40.158504 69.11351 4.5161467e-39
-56.667126 40.614113 69.897614 4.240636e-39
-55.496681 40.548393 69.784508 3.5005683e-39
-53.894684 40.158504 69.11351 3.8704214e-39
-52.657532 40.030205 68.8927 5.2544348e-39
-51.757931 40.158504 69.11351 4.8845733e-39
-50.689556 40.158504 69.11351 5.3455543e-39
-49.541786 40.094254 69.002922 4.6079864e-39
-48.552803 40.158504 69.11351 4.7927336e-39
-46.957657 39.713009 68.346794 4.7905826e-39
-46.193966 39.966358 68.782822 9.5843756e-39
-45.130699 39.966358 68.782822 9.0304816e-39
-43.997265 39.902718 68.673294 1.0225796e-38
-43.141785 40.094254 69.002922 8.5691475e-39
-42.142548 40.158504 69.11351 7.0929314e-39
-41.00845 40.094254 69.002922 4.9760347e-39
-39.877979 40.030205 68.8927 6.3582503e-39
-38.751114 39.966358 68.782822 8.2057782e-39
-37.687851 39.966358 68.782822 8.936844e-39
-36.741783 40.094254 69.002922 7.001826e-39
-35.732288 40.158504 69.11351 8.2939885e-39
-34.663914 40.158504 69.11351 6.7263307e-39
-33.812283 40.417591 69.559402 7.8315853e-39
-32.789902 40.482887 69.671776 7.4645978e-39
-31.61076 40.352509 69.447388 5.9898307e-39
-30.100977 39.776043 68.455284 7.9248571e-39
-29.181736 39.966358 68.782822 8.8460903e-39
-28.299007 40.222965 69.224442 8.1088966e-39
-27.098427 40.030205 68.8927 6.2642568e-39
-25.909298 39.839279 68.564117 8.0199324e-39
-24.968502 40.030205 68.8927 6.8177865e-39
-23.865416 39.966358 68.782822 6.8192284e-39
-22.729649 39.839279 68.564117 7.3724022e-39
-21.635368 39.776043 68.455284 6.8185207e-39
-20.544556 39.713009 68.346794 7.5560858e-39
-19.643688 40.030205 68.8927 7.2802178e-39
-18.373274 39.587532 68.130852 8.2021741e-39
-17.238388 39.400799 67.809479 9.7680648e-39
-16.19017 39.400799 67.809479 5.3437466e-39
-15.047316 39.154545 67.385666 5.9894789e-39
-14.11593 39.462845 67.916267 6.3578985e-39
-12.923595 39.032566 67.175743 6.9099821e-39
-11.405503 37.45726 64.464615 5.3444627e-39
-10.424574 37.513336 64.561119 6.4486508e-39
-9.5843964 38.141411 65.642052 3.0395719e-39
-8.824893 39.277287 67.596909 3.5001941e-39
-7.8167167 39.462845 67.916267 4.4217903e-39
-6.8097439 39.713009 68.346794 4.6061816e-39
-5.716979 39.462845 67.916267 5.7128921e-39
-4.7191319 39.902718 68.673294 6.2667931e-39
-3.6115539 39.400799 67.809479 1.1515455e-38
-2.5754843 39.587532 68.130852 1.4652617e-38
-1.5198973 39.525089 68.023392 1.538297e-38
-0.47134644 39.776043 68.455284 1.5290777e-38
0.58040571 39.338943 67.703026 1.7227598e-38
1.6295364 39.400799 67.809479 1.5662438e-38
2.6735506 39.338943 67.703026 1.5384773e-38
3.7377262 39.525089 68.023392 1.6213818e-38
4.8427196 39.966358 68.782822 1.427987e-38
5.840776 39.525089 68.023392 1.630889e-38
6.9581504 39.902718 68.673294 1.179312e-38
8.019722 39.902718 68.673294 1.33615e-38
8.981184 39.462845 67.916267 1.0964432e-38
10.110664 39.776043 68.455284 1.3268604e-38
11.186622 39.839279 68.564117 7.184411e-39
12.246506 39.839279 68.564117 1.133321e-38
13.327578 39.902718 68.673294 1.3264274e-38
14.343469 39.776043 68.455284 1.5114674e-38
15.475362 39.966358 68.782822 1.225301e-38
16.433786 39.713009 68.346794 6.0791494e-39
17.462635 39.650169 68.238655 5.5266945e-39
18.401026 39.400799 67.809479 1.4552487e-38
19.14817 38.790878 66.759796 1.7223617e-38
20.117878 38.671154 66.553749 8.3822325e-39
21.411018 39.154545 67.385666 3.0406649e-39
22.881718 39.902718 68.673294 3.2254079e-39
23.943289 39.902718 68.673294 4.0544497e-39
25.084747 40.030205 68.8927 5.2519111e-39
26.066431 39.902718 68.673294 8.8453687e-39
27.433792 40.352509 69.447388 7.3706085e-39
28.645716 40.548393 69.784508 5.6199804e-39
29.39155 40.094254 69.002922 5.6185356e-39
30.555996 40.222965 69.224442 5.6203293e-39
31.933634 40.614113 69.897614 5.9880468e-39
32.748745 40.287632 69.335739 6.263189e-39
33.712158 40.158504 69.11351 5.4373814e-39
34.948555 40.352509 69.447388 4.7898652e-39
35.848907 40.158504 69.11351 5.8983595e-39
36.682144 39.902718 68.673294 6.7245202e-39
37.623894 39.776043 68.455284 7.7397428e-39
38.867176 39.966358 68.782822 7.4624342e-39
40.058216 40.094254 69.002922 9.0279677e-39
40.733837 39.713009 68.346794 1.2342672e-38
41.461823 39.400799 67.809479 1.6684462e-38
43.051571 39.902718 68.673294 1.5846092e-38
44.53867 40.287632 69.335739 1.4096544e-38
45.980095 40.614113 69.897614 1.4186236e-38
47.445076 40.945927 70.468674 6.1720611e-39
47.677452 40.222965 69.224442 7.8333803e-39
49.950195 41.215309 70.932281 7.3734924e-39
51.215157 41.351334 71.166382 9.3916957e-39
53.103939 41.97472 72.239243 1.2066435e-38
53.770298 41.626091 71.639252 1.0962631e-38
54.425678 41.283207 71.049141 1.1512914e-38
55.892292 41.55706 71.520447 1.4278065e-38
56.809452 41.419682 71.284012 1.8243178e-38
59.484528 42.544834 73.220421 1.6491472e-38
-56.199184 40.576614 68.023392 4.0551686e-39
-54.716145 40.259113 67.491127 5.0693205e-39
-53.588982 40.196209 67.385666 4.3310394e-39
-51.586254 40.259113 67.491127 3.9640604e-39
-50.463982 40.196209 67.385666 5.0693205e-39
-49.733147 40.449017 67.809479 5.9894761e-39
-48.7616 40.512714 67.916267 5.0682499e-39
-47.265129 40.133503 67.28054 5.8965644e-39
-45.938423 39.884613 66.863297 6.5412206e-39
-45.044502 40.008671 67.071274 8.9379342e-39
-44.007698 40.008671 67.071274 8.0174157e-39
-43.172318 40.196209 67.385666 7.1862173e-39
-42.529362 40.576614 68.023392 8.2018069e-39
-41.217789 40.322216 67.596909 8.2021769e-39
-40.299187 40.449017 67.809479 6.5437345e-39
-39.18935 40.385517 67.703026 6.5444478e-39
-37.904755 40.133503 67.28054 6.3578985e-39
-36.980099 40.259113 67.491127 6.4497438e-39
-36.334835 40.705021 68.238655 5.6224887e-39
-35.224247 40.640717 68.130852 6.9117884e-39
-33.956486 40.385517 67.703026 6.9096262e-39
-32.75565 40.196209 67.385666 7.1862159e-39
-31.863342 40.385517 67.703026 6.8199445e-39
-30.768467 40.322216 67.596909 5.9898321e-39
-29.677019 40.259113 67.491127 7.6489863e-39
-29.181736 41.029625 68.782822 6.8185095e-39
-27.633671 40.322216 67.596909 6.449727e-39
-26.547129 40.259113 67.491127 6.9103562e-39
-25.463982 40.196209 67.385666 6.7273971e-39
-24.422316 40.196209 67.385666 5.8032828e-39
-23.453943 40.322216 67.596909 7.0947419e-39
-22.304132 40.133503 67.28054 6.910708e-39
-21.099508 39.822872 66.759796 5.7139739e-39
-20.192547 40.070988 67.175743 7.0958265e-39
-19.213982 40.196209 67.385666 6.7281258e-39
-18.059444 39.946545 66.967125 6.2671476e-39
-17.050724 40.008671 67.071274 7.6468311e-39
-16.03886 40.070988 67.175743 6.4500942e-39
-14.97711 40.008671 67.071274 6.8181578e-39
-13.940304 40.008671 67.071274 5.7128949e-39
-12.365049 38.339157 64.272469 6.6323246e-39
-11.090526 37.391823 62.684341 7.0940174e-39
-10.362522 38.282104 64.176826 6.725588e-39
-9.4833555 38.743336 64.950043 2.6715153e-39
-8.7291193 39.884613 66.863297 3.5938345e-39
-7.7435493 40.133503 67.28054 3.9622513e-39
-6.7035074 40.133503 67.28054 5.3441067e-39
-5.6458502 40.008671 67.071274 5.5277819e-39
-4.6451645 40.322216 67.596909 5.4355919e-39
-3.5889816 40.196209 67.385666 1.013251e-38
-2.5473151 40.196209 67.385666 9.8559347e-39
-1.5056484 40.196209 67.385666 1.0132154e-38
-0.46253622 40.070988 67.175743 9.9473946e-39
0.56879759 39.577808 66.348969 1.160656e-38
1.6092937 39.946545 66.967125 1.132961e-38
2.6322284 39.761322 66.656609 1.1514001e-38
3.7026851 40.196209 67.385666 1.2988413e-38
4.7592244 40.322216 67.596909 1.2895494e-38
5.8041563 40.322216 67.596909 1.2159016e-38
6.9141116 40.705021 68.238655 1.0960828e-38
7.9313154 40.512714 67.916267 1.1238868e-38
8.967063 40.449017 67.809479 1.2803298e-38
10.031053 40.512714 67.916267 1.3819241e-38
11.204435 40.964291 68.673294 1.2989134e-38
12.207689 40.769531 68.346794 1.4186587e-38
13.180659 40.512714 67.916267 1.5289329e-38
14.208153 40.449017 67.809479 1.1973889e-38
15.232421 40.385517 67.703026 1.4741188e-38
