# .PCD v0.7 - Point Cloud Data file format
VERSION 0.7
FIELDS x y z rgb
SIZE 4 4 4 4
TYPE F F F F
COUNT 1 1 1 1
WIDTH 1055
HEIGHT 1
VIEWPOINT 0 0 0 1 0 0 0
POINTS 1055
DATA ascii
-177.98807 -233.38722 299.49185 2.3509886e-38
63.944214 -131.28032 168.46417 2.3509886e-38
69.319695 -126.82174 162.74275 2.341805e-38
77.747017 -128.2739 164.60622 2.3324775e-38
79.607544 -119.60057 153.47626 1.4551397e-38
76.876083 -106.01817 136.04678 1.639062e-38
78.951256 -100.62204 129.12224 1.7864308e-38
79.914703 -94.669746 121.48402 2.1368447e-38
79.087807 -87.52021 112.30945 1.8323468e-38
80.924301 -84.019402 107.81707 9.6675595e-39
83.219658 -81.374725 104.42331 7.5445461e-39
-189.85394 -234.13156 319.45798 2.3509886e-38
62.749863 -138.02516 188.32677 2.3509886e-38
65.478874 -126.43104 172.50731 2.3509883e-38
73.478874 -126.43104 172.50731 2.350988e-38
78.34507 -121.56831 165.87242 2.0997156e-38
78.490242 -110.90442 151.3222 1.8787695e-38
77.610573 -100.66166 137.34659 2.0167392e-38
78.951256 -94.63401 129.12224 1.8972813e-38
79.914703 -89.035942 121.48402 1.8878095e-38
78.474724 -81.673798 111.43884 2.118153e-38
78.758438 -76.904526 104.93146 2.0542289e-38
81.252289 -74.722839 101.95467 1.9063205e-38
-167.51819 -193.51477 281.87469 2.3509886e-38
-186.06522 -233.13197 339.58133 2.3509886e-38
-175.27037 -264.35501 385.06097 2.3509886e-38
65.316902 -134.58073 196.03104 2.3509886e-38
73.079102 -132.17751 192.53049 2.3506632e-38
74.978447 -120.848 176.02786 2.3492916e-38
77.747017 -113.00672 164.60622 2.3309948e-38
77.672638 -102.80473 149.74593 2.3403234e-38
77.364189 -93.992889 136.91057 2.0997854e-38
78.248421 -87.856857 127.97279 2.3495786e-38
79.467003 -82.934906 120.80344 1.9061408e-38
78.678032 -76.704041 111.72753 2.3395304e-38
78.950531 -72.21405 105.18739 2.1739026e-38
81.444832 -70.160568 102.19627 2.247443e-38
-205.0627 -168.34 262.96848 2.3509886e-38
-272.67484 -237.99794 371.78299 2.3509886e-38
-221.12151 -206.02806 321.84201 2.3509886e-38
65.021355 -124.92199 195.14401 2.3509886e-38
76.138229 -128.40819 200.5899 2.2581027e-38
76.540497 -115.03233 179.69511 2.3403585e-38
76.577888 -103.78857 162.13094 2.3509457e-38
76.871887 -94.872025 148.20216 2.3504059e-38
77.610573 -87.922806 137.34659 2.2286083e-38
75.993423 -79.561272 124.28481 2.3506581e-38
77.091629 -75.021088 117.19247 2.2934682e-38
78.071259 -70.971107 110.86588 2.3405734e-38
77.811829 -66.364807 103.67026 2.2563742e-38
79.559532 -63.906853 99.83062 2.2750291e-38
-222.7171 -169.58781 285.60812 2.3509886e-38
-243.30986 -196.98277 331.74484 2.3509886e-38
-213.1675 -184.22849 310.26495 2.3509886e-38
-228.34944 -211.63438 356.42007 2.3509886e-38
-176.84938 -230.70055 388.52997 2.3509886e-38
54.253151 -112.31474 189.15276 2.3509886e-38
64.728462 -115.35027 194.26498 2.3509883e-38
74.407814 -116.39891 196.03104 2.3509876e-38
75.907928 -105.81719 178.21004 1.9798255e-38
76.866867 -96.633057 162.74275 2.3501893e-38
76.871887 -87.999176 148.20216 2.3492176e-38
76.876083 -80.781578 136.04678 2.3494331e-38
77.557999 -75.31694 126.84361 2.3505864e-38
77.091629 -69.586304 117.19247 2.3491814e-38
77.871071 -65.660927 110.58161 2.321164e-38
78.187729 -61.854492 104.17108 2.3488931e-38
78.290932 -58.332027 98.238785 2.2474427e-38
-222.68927 -147.54851 269.54266 2.3509886e-38
-221.12151 -176.17731 321.84201 2.3509886e-38
-221.04225 -188.86208 345.01462 2.3509886e-38
-201.81325 -185.88788 339.58133 2.3509886e-38
-167.67661 -183.00589 334.3165 2.3509886e-38
46.087639 -104.92338 191.67479 2.3509886e-38
55.221958 -105.39178 192.53049 2.3509886e-38
62.206573 -102.1981 186.69623 2.3509886e-38
71.172691 -102.64243 187.50795 2.341805e-38
76.540497 -98.365669 179.69511 2.2483073e-38
75.165016 -87.113503 159.13959 2.330419e-38
78.215797 -82.544617 150.79311 2.3488933e-38
76.634338 -74.238243 135.61896 2.3213082e-38
75.993423 -68.03389 124.28481 2.3121954e-38
77.091629 -64.15152 117.19247 2.2295442e-38
78.071259 -60.688328 110.86588 9.7640908e-39
77.439522 -56.477894 103.17423 1.7409093e-38
77.062149 -52.932198 96.696922 1.4739741e-38
-216.55891 -118.0752 235.66573 2.3325847e-38
-221.3546 -127.10447 253.68723 1.4102313e-38
-209.58989 -127.10447 253.68723 1.3004626e-38
-211.51122 -135.89786 271.23792 1.9734172e-38
-272.67484 -186.27379 371.78299 1.9998547e-38
-221.12151 -161.25194 321.84201 2.3325856e-38
-204.66876 -160.05748 319.45798 2.3509883e-38
-205.04225 -172.86208 345.01462 2.3509886e-38
-183.18048 -167.50201 334.3165 2.3509886e-38
-176.84938 -194.66451 388.52997 2.3509886e-38
57.533577 -100.50121 200.5899 2.3509886e-38
62.749863 -94.357033 188.32677 2.3509886e-38
71.172691 -93.946785 187.50795 2.3509886e-38
75.907928 -89.288261 178.21004 2.3509848e-38
75.165016 -79.733429 159.13959 2.34875e-38
76.608627 -73.999176 147.69461 1.5006969e-38
76.394104 -67.735924 135.19382 1.4830865e-38
75.557938 -61.913353 123.57257 1.6395663e-38
76.674919 -58.399353 116.559 1.3908553e-38
76.114586 -54.154789 108.08729 1.3907488e-38
77.2547 -51.569832 102.92799 1.657933e-38
77.409279 -48.666126 97.132492 1.4645742e-38
-222.64203 -110.15595 242.28555 2.0189016e-38
-216.26599 -112.68828 247.85533 1.4014048e-38
-222.68927 -122.5485 269.54266 9.9578287e-39
-249.1132 -145.24266 319.45798 1.23614e-38
-224.47183 -148.54364 326.71838 2.3233662e-38
-221.04225 -156.86208 345.01462 2.3325856e-38
-194.16881 -148.54364 326.71838 2.3050708e-38
-198.57381 -164.77109 362.41031 2.3508809e-38
-184.87421 -167.58769 368.60538 2.3509886e-38
71.137222 -97.068115 213.49915 1.0691089e-38
73.737473 -88.323242 194.26498 8.841396e-39
75.595551 -80.690369 177.47665 1.7314022e-38
75.723862 -72.891304 160.32278 2.3030849e-38
75.829559 -66.46698 146.19264 1.1695863e-38
75.918129 -61.083366 134.35149 1.2249762e-38
75.342056 -56.022171 123.21951 1.740802e-38
76.058228 -52.567722 115.62152 1.538332e-38
75.924301 -49.019402 107.81707 1.3815627e-38
76.887695 -46.574253 102.43902 1.7409464e-38
77.759544 -44.361446 97.572006 1.2713247e-38
-208.58043 -92.672424 226.98331 7.8369775e-39
-212.60046 -99.478867 243.65439 6.2714496e-39
-202.44479 -100.04409 245.03879 1.0510285e-38
-198.99576 -104.18793 255.18832 8.2053942e-39
-222.74847 -123.99831 303.71005 1.1895714e-38
-205.76585 -122.27611 299.49185 1.0603918e-38
-217.56128 -138.64378 339.58133 1.299848e-38
-210.08427 -144.3259 353.4986 9.7770416e-39
-186.06522 -138.64378 339.58133 1.2262738e-38
-181.76707 -147.96437 362.41031 1.1063839e-38
-180.09433 -161.53908 395.65897 1.4019097e-38
73.314888 -89.83551 220.03484 1.2254819e-38
73.737473 -79.314232 194.26498 1.8144143e-38
74.978447 -71.868408 176.02786 2.0270742e-38
75.443405 -65.213928 159.72899 2.0634155e-38
75.829559 -59.687321 146.19264 1.9249774e-38
75.215179 -54.344936 133.1075 1.9903067e-38
75.993423 -50.742825 124.28481 1.4830501e-38
76.058228 -47.205791 115.62152 1.4554998e-38
75.546562 -43.8004 107.28067 1.6304909e-38
75.453888 -41.043728 100.52874 1.2988392e-38
76.889755 -39.390961 96.480598 1.0043543e-38
-235.89453 -92.903336 256.70731 5.7161122e-39
-201.23146 -83.463959 230.62476 9.7741311e-39
-196.85239 -86.230721 238.26976 5.3469808e-39
-202.59206 -94.022652 259.80017 6.1785281e-39
-210.86855 -104.05173 287.51218 5.5338846e-39
-221.12151 -116.47582 321.84201 8.665285e-39
-214.18823 -120.99039 334.3165 9.313883e-39
-195.65102 -119.1432 329.21243 9.9563783e-39
-186.06522 -122.89574 339.58133 8.4848454e-39
-168.98657 -121.93562 336.92834 1.3092448e-38
-176.84938 -140.61044 388.52997 1.7430344e-38
74.967995 -94.592484 261.37473 1.7325541e-38
73.314888 -79.631432 220.03484 1.2992369e-38
73.737473 -70.305222 194.26498 1.8791656e-38
74.673653 -63.446178 175.3123 1.8049806e-38
73.536888 -56.345703 155.69252 2.0078811e-38
75.829559 -52.907661 146.19264 2.3227856e-38
74.753738 -47.876564 132.29088 2.2678644e-38
75.342056 -44.593601 123.21951 1.7775352e-38
76.058228 -41.843861 115.62152 1.2805103e-38
75.359108 -38.728931 107.01446 7.5510285e-39
75.278419 -36.297115 100.29495 1.5563395e-38
76.547256 -34.761158 96.050842 9.30633e-39
-220.16824 -75.598663 239.59349 4.7016142e-39
-199.10202 -71.998726 228.18428 5.1636713e-39
-196.85239 -75.180992 238.26976 4.8867215e-39
-195.5249 -79.114883 250.73737 5.9955816e-39
-222.74847 -95.829292 303.71005 6.6373483e-39
-205.76585 -94.498329 299.49185 7.2855987e-39
-206.19614 -101.55045 321.84201 7.4721368e-39
-201.81325 -107.14771 339.58133 7.0075685e-39
-189.04225 -108.86208 345.01462 9.2173658e-39
-170.31718 -107.14771 339.58133 5.4398911e-39
-167.78018 -116.30564 368.60538 5.9937809e-39
71.501266 -78.65757 249.28802 2.0100803e-38
72.942734 -69.074921 218.91791 1.4098362e-38
72.113297 -59.946079 189.98602 1.4930258e-38
74.37133 -55.092144 174.60254 1.9715448e-38
74.071709 -49.482765 156.82483 2.2021044e-38
73.584602 -44.762367 141.86456 2.230266e-38
73.847633 -41.235638 130.68736 2.0725964e-38
75.342056 -38.879314 123.21951 1.7494083e-38
74.854141 -35.904381 113.7911 1.2805811e-38
75.546562 -33.850147 107.28067 1.4369517e-38
74.756859 -31.426697 99.600067 9.0315578e-39
76.718124 -30.374464 96.265244 1.3264628e-38
-204.2798 -59.833813 222.30324 6.4540346e-39
-195.99106 -60.457081 224.6189 5.5331573e-39
-196.85239 -64.131271 238.26976 3.9647652e-39
-205.0627 -70.779022 262.96848 5.0725505e-39
-213.71812 -78.430809 291.39749 8.8518314e-39
-208.66396 -81.744789 303.71005 7.0075699e-39
-198.77901 -83.509064 310.26495 8.574883e-39
-200.23657 -90.685623 336.92834 6.5483882e-39
-179.01729 -87.937576 326.71838 6.1778093e-39
-163.86577 -87.937576 326.71838 5.9012252e-39
-162.23373 -95.9319 356.42007 4.7945245e-39
-150.68617 -99.211624 368.60538 9.2213314e-39
-142.09348 -105.52509 392.06207 1.3648859e-38
77.497391 -107.47926 399.32248 2.341805e-38
64.810745 -72.5485 269.54266 2.350988e-38
72.763054 -68.280937 253.68723 1.1795995e-38
73.314888 -59.223263 220.03484 1.6215616e-38
73.079102 -51.820358 192.53049 1.1241003e-38
75.595551 -47.768559 177.47665 2.137423e-38
73.803329 -42.057102 156.25662 1.6306715e-38
73.584602 -38.183422 141.86456 1.6769141e-38
74.753738 -35.606625 132.29088 1.4922708e-38
74.913971 -32.976589 122.51939 1.2435955e-38
73.687584 -30.150026 112.01774 1.6674778e-38
74.986961 -28.661135 106.48599 1.6856652e-38
74.756859 -26.80776 99.600067 1.4927035e-38
75.043053 -25.344454 94.163383 1.4004354e-38
-204.2798 -49.524536 222.30324 4.3338995e-39
-195.99106 -50.040417 224.6189 3.5963456e-39
-197.94601 -53.376442 239.59349 3.9644093e-39
-187.87868 -53.674637 240.93201 4.517939e-39
-194.05081 -58.943314 264.58176 4.3339107e-39
-177.42683 -57.531494 258.24448 4.7945245e-39
-166.44748 -57.878071 259.80017 6.6387902e-39
-162.21698 -60.808605 272.95462 6.8238961e-39
-152.45343 -61.985546 278.23761 6.178175e-39
-144.20187 -64.051735 287.51218 6.7324222e-39
-134.45398 -65.806572 295.38922 1.1339659e-38
-119.93389 -65.35891 293.37979 9.2202538e-39
-108.54362 -66.720551 299.49185 8.6667241e-39
-106.48658 -75.060623 336.92834 8.5716586e-39
-90.86158 -75.060623 336.92834 1.1795643e-38
-81.612556 -81.421692 365.4816 1.6863528e-38
-62.034809 -78.11187 350.6246 1.843157e-38
-46.919014 -80.064667 359.39023 1.5944449e-38
-32.705238 -86.556396 388.52997 2.1934266e-38
-14.054152 -82.825516 371.78299 2.3509168e-38
3.1068776 -80.73748 362.41031 7.9216229e-39
21.740536 -88.144585 395.65897 2.2482371e-38
39.015343 -85.783569 385.06097 2.1751335e-38
56.872486 -85.783569 385.06097 1.8431559e-38
70.333771 -80.73748 362.41031 1.6955704e-38
65.218353 -60.426163 271.23792 1.6588365e-38
70.684105 -54.901485 246.43901 1.3088194e-38
72.209641 -48.280201 216.71773 1.3269318e-38
72.113297 -42.324932 189.98602 1.9264215e-38
74.978447 -39.215347 176.02786 2.3213815e-38
74.614357 -35.19326 157.97372 2.2383322e-38
73.584602 -31.604473 141.86456 2.3507307e-38
74.753738 -29.471657 132.29088 1.6755449e-38
74.913971 -27.294773 122.51939 1.2253716e-38
73.879478 -25.020208 112.30945 1.3724167e-38
75.359108 -23.840595 107.01446 1.6302743e-38
73.903465 -21.935524 98.463074 1.188459e-38
74.554703 -20.841127 93.550606 5.8029157e-39
-182.67128 -36.930874 209.35353 4.5179376e-39
-179.04665 -38.22995 216.71773 5.9930677e-39
-169.84991 -38.423031 217.81226 5.8097456e-39
-159.7489 -38.423031 217.81226 7.5636094e-39
-162.80374 -41.800877 236.96059 5.9937809e-39
-153.50157 -42.265331 239.59349 5.8104659e-39
-140.05618 -41.572456 235.66573 5.8104687e-39
-134.26297 -43.225906 245.03879 8.5755991e-39
-124.31197 -43.722755 247.85533 9.6815809e-39
-117.5466 -45.555447 258.24448 8.4826888e-39
-108.16124 -46.673374 264.58176 8.4812567e-39
-98.303658 -47.847546 271.23792 1.0413049e-38
-84.137543 -46.961479 266.215 1.1979671e-38
-76.014915 -49.723919 281.87469 1.43789e-38
-66.876953 -52.831665 299.49185 1.0693254e-38
-51.209946 -51.058792 289.4418 1.4928136e-38
-39.099178 -52.831665 299.49185 1.5664982e-38
-26.117134 -54.732086 310.26495 2.3326213e-38
-11.090351 -51.753468 293.37979 2.331037e-38
2.4980974 -51.403782 291.39749 7.280945e-39
16.456379 -52.831665 299.49185 2.2307035e-38
29.929579 -52.107944 295.38922 8.0152577e-39
47.183102 -56.353775 319.45798 1.5754284e-38
56.552155 -51.403782 291.39749 1.6311071e-38
66.049164 -48.457069 274.69318 1.29009e-38
70.684105 -43.472912 246.43901 2.1285637e-38
70.096191 -37.111023 210.37477 2.2392346e-38
74.071129 -34.424252 195.14401 2.3504449e-38
72.895706 -30.189524 171.1382 2.3509503e-38
74.342041 -27.765547 157.39719 1.6485352e-38
72.865532 -24.780977 140.47827 1.6490019e-38
74.072098 -23.12389 131.08458 1.8974607e-38
74.072243 -21.370111 121.14278 1.1238131e-38
73.879478 -19.811874 112.30945 1.4741197e-38
74.802261 -18.738325 106.22372 1.5015277e-38
72.577843 -17.057756 96.696922 1.7775e-38
75.537842 -16.72035 94.784241 1.345118e-38
-167.99232 -25.034641 192.53049 4.7945245e-39
-154.91428 -24.381563 187.50795 5.8093925e-39
-164.05016 -27.354925 210.37477 5.5320867e-39
-154.29407 -27.354925 210.37477 7.0082874e-39
-140.42787 -26.577061 204.39255 1.1614444e-38
-134.78186 -27.354925 210.37477 9.4943072e-39
-123.22251 -26.960382 207.34052 9.4971924e-39
-116.40533 -27.624432 212.44743 6.5447855e-39
-113.84359 -29.514524 226.98331 8.1103316e-39
-103.86393 -29.670687 228.18428 7.55572e-39
-93.778099 -29.828508 229.39803 8.6620704e-39
-86.8349 -31.154221 239.59349 1.1522645e-38
-75.723785 -31.154221 239.59349 1.2348817e-38
-67.61792 -32.603252 250.73737 1.6405779e-38
-53.205978 -30.982098 238.26976 1.6680569e-38
-43.601608 -32.044342 246.43901 1.4471474e-38
-32.357941 -32.228504 247.85533 1.9997453e-38
-20.168232 -31.154221 239.59349 2.3509883e-38
-9.4235935 -32.414795 249.28802 1.8884606e-38
2.100673 -31.86227 245.03879 8.8443149e-39
13.165103 -31.154221 239.59349 2.1655133e-38
24.687675 -31.682259 243.65439 2.3499403e-38
36.819183 -32.414795 249.28802 2.3498696e-38
47.826965 -32.044342 246.43901 2.3129547e-38
64.810745 -35.0485 269.54266 2.2764015e-38
69.104576 -31.328266 240.93201 1.6954611e-38
70.786789 -27.624432 212.44743 2.3508091e-38
73.079102 -25.034641 192.53049 2.3497236e-38
71.200462 -21.735502 167.15825 2.3502624e-38
73.536888 -20.244619 155.69252 2.3509513e-38
73.584602 -18.446579 141.86456 2.3142544e-38
72.963234 -16.7897 129.12224 1.3268218e-38
74.913971 -15.931135 122.51939 1.1237763e-38
73.879478 -14.603541 112.30945 1.4739039e-38
74.986961 -13.84632 106.48599 1.2349912e-38
72.577843 -12.573452 96.696922 2.3509886e-38
74.07267 -12.08569 92.945747 2.2121154e-38
-153.59299 -14.72555 176.02786 5.0729064e-39
-139.18079 -14.092812 168.46417 4.9796318e-39
-129.84665 -13.929574 166.51285 6.8235304e-39
-129.1032 -14.72555 176.02786 6.6384343e-39
-121.93532 -14.846747 177.47665 9.4050052e-39
-120.13166 -15.685912 187.50795 1.1987539e-38
-112.90873 -15.893214 189.98602 1.2352722e-38
-105.02348 -16.034487 191.67479 1.1058067e-38
-96.563759 -16.10607 192.53049 1.0597086e-38
-88.42469 -16.251169 194.26498 1.0966238e-38
-79.775032 -16.324705 195.14401 1.3548788e-38
-71.69854 -16.549356 197.82948 1.4744818e-38
-62.812359 -16.62562 198.74115 1.456007e-38
-55.382294 -17.179808 205.36584 1.2255166e-38
-46.299431 -17.344999 207.34052 1.5758253e-38
-36.861263 -17.428791 208.34216 2.0089263e-38
-27.199429 -17.428791 208.34216 2.3509859e-38
-17.369768 -17.262009 206.34846 2.350591e-38
-7.6539044 -16.93784 202.47337 1.8879561e-38
1.7947496 -17.513397 209.35353 1.7231224e-38
11.392878 -17.344999 207.34052 1.9258085e-38
21.109751 -17.428791 208.34216 1.7872252e-38
31.53326 -17.860197 213.49915 1.1790926e-38
40.827896 -17.598827 210.37477 1.7233681e-38
53.45216 -18.596699 222.30324 1.0503454e-38
63.761436 -18.596699 222.30324 1.3174965e-38
69.41893 -17.428791 208.34216 2.1193436e-38
72.113297 -15.893214 189.98602 2.3509509e-38
73.186134 -14.373545 171.82004 2.3507665e-38
71.222794 -12.614544 150.79311 2.3501565e-38
73.103653 -11.790064 140.93735 2.0091795e-38
72.74543 -10.769432 128.7368 2.1646842e-38
72.844528 -9.9661865 119.13488 2.3509495e-38
74.461205 -9.4691858 113.19377 1.5469754e-38
74.802261 -8.8861074 106.22372 2.3509886e-38
71.614426 -7.9817691 95.413338 2.3509164e-38
72.205292 -7.5793271 90.602577 2.3142544e-38
-135.8494 -5.8041863 155.69252 5.717194e-39
-125.45874 -5.6611257 151.85503 5.9927019e-39
-123.64075 -5.910881 158.55452 6.6395021e-39
-123.07503 -6.2558742 167.80867 8.8503909e-39
-115.74329 -6.2803111 168.46417 8.1103077e-39
-107.93079 -6.2803111 168.46417 8.4783938e-39
-100.11829 -6.2803111 168.46417 8.4758659e-39
-96.05806 -6.5356083 175.3123 8.1103316e-39
-85.158592 -6.3297625 169.79066 1.2257324e-38
-77.59005 -6.3547812 170.46178 1.3823584e-38
-68.600319 -6.2558742 167.80867 1.5848267e-38
-62.024929 -6.3799987 171.1382 1.317535e-38
-55.633804 -6.5622845 176.02786 1.1058783e-38
-49.490562 -6.8415303 183.51842 7.5546438e-39
-42.801254 -7.1455984 191.67479 9.6769412e-39
-34.063759 -7.1774983 192.53049 2.3507697e-38
-24.061033 -6.8707676 184.30269 2.3502654e-38
-15.126174 -6.6989985 179.69511 2.1936094e-38
-6.4951458 -6.405417 171.82004 1.9903437e-38
1.5599934 -6.7837958 181.96974 2.1103412e-38
9.8328571 -6.6712017 178.94949 2.10926e-38
18.437632 -6.7837958 181.96974 1.8787365e-38
27.455683 -6.9299984 185.89149 7.3713344e-39
37.19875 -7.1455984 191.67479 2.0630568e-38
46.293388 -7.1774983 192.53049 7.9234124e-39
55.719452 -7.2421603 194.26498 8.2940039e-39
64.728462 -7.2421603 194.26498 1.630891e-38
69.658379 -6.8415303 183.51842 1.6767361e-38
71.756714 -6.2803111 168.46417 2.3142171e-38
71.472694 -5.6412621 151.3222 2.341805e-38
73.103653 -5.2541165 140.93735 1.7410178e-38
72.313705 -4.7708001 127.97279 2.2856188e-38
71.852097 -4.3808165 117.5118 1.3634854e-38
73.30677 -4.1544175 111.43884 2.2397388e-38
73.004135 -3.8648069 103.67026 2.3509168e-38
72.577843 -3.6048422 96.696922 1.6211288e-38
72.053917 -3.3705652 90.412636 1.9350982e-38
-127.99416 1.334151 146.6899 4.7945217e-39
-112.04491 1.2334604 135.61896 5.6246355e-39
-111.35855 1.2988093 142.80406 5.8075876e-39
-105.08399 1.3031243 143.2785 5.3433823e-39
-100.78327 1.334151 146.6899 4.4235854e-39
-97.289726 1.3811282 151.85503 4.8849292e-39
-90.247475 1.3811282 151.85503 6.4511844e-39
-82.623367 1.37147 150.79311 1.2254463e-38
-75.630356 1.37147 150.79311 1.2164062e-38
-70.612526 1.4109367 155.13248 1.1703436e-38
-63.647228 1.4160303 155.69252 1.5940111e-38
-56.224037 1.4109367 155.13248 1.1520489e-38
-50.296242 1.4473816 159.13959 1.0598542e-38
-44.904564 1.5144417 166.51285 1.4003651e-38
-36.756802 1.4971008 164.60622 2.3503014e-38
-28.577835 1.4690652 161.5237 2.3409382e-38
-20.852896 1.4527422 159.72899 1.9345238e-38
-13.297735 1.4367781 157.97372 1.0314368e-38
-5.8854933 1.4160303 155.69252 5.3408585e-39
1.4165457 1.5028368 165.23689 1.5477695e-38
9.0103369 1.4914083 163.98033 2.1558984e-38
16.184143 1.4527422 159.72899 1.833177e-38
23.504496 1.4473816 159.13959 1.0035271e-38
32.694214 1.5321891 168.46417 2.2019596e-38
40.506714 1.5321891 168.46417 1.593865e-38
48.508701 1.5381976 169.12482 7.7408302e-39
56.573696 1.5442536 169.79066 8.1103302e-39
65.218002 1.5627108 171.82004 1.4740848e-38
70.652763 1.5086169 165.87242 1.9348081e-38
71.472694 1.3762821 151.3222 2.3509168e-38
73.343338 1.2860341 141.39943 2.3142542e-38
72.74543 1.1708668 128.7368 2.0267141e-38
72.643852 1.0805521 118.80669 1.4003269e-38
73.496681 1.0161668 111.72753 2.3234018e-38
72.308853 0.93390572 102.68292 2.3509883e-38
72.415482 0.87749529 96.480598 1.3636296e-38
74.07267 0.84534568 92.945747 2.0356841e-38
-112.3292 7.1410165 128.7368 5.3466094e-39
-107.97055 7.2492137 130.68736 4.4232294e-39
-100.99184 7.1839051 129.50999 4.2381137e-39
-96.728691 7.3157201 131.88632 4.7941615e-39
-91.451485 7.3834581 133.1075 5.1600714e-39
-90.000916 7.7923141 140.47827 7.1891011e-39
-83.486259 7.7923141 140.47827 9.2145169e-39
-75.255676 7.6186004 137.34659 7.7411959e-39
-71.152245 7.8692122 141.86456 7.0958237e-39
-64.573296 7.8692122 141.86456 7.0050728e-39
-57.99435 7.8692122 141.86456 8.4809274e-39
-52.450611 8.0276527 144.7209 1.0968769e-38
-45.739201 8.0276527 144.7209 1.0871883e-38
-40.382923 8.3063908 149.74593 2.2952003e-38
-32.756062 8.1368723 146.6899 2.2669661e-38
-26.2209 8.2207575 148.20216 2.2487054e-38
-18.520664 7.8692122 141.86456 1.3445052e-38
-11.941716 7.8692122 141.86456 1.0684238e-38
-5.5263782 8.1092901 146.19264 4.237762e-39
1.2705101 8.2207575 148.20216 1.501528e-38
8.0329437 8.1092901 146.19264 1.5844298e-38
15.067995 8.2491055 148.7132 1.6119793e-38
21.51932 8.081893 145.69875 2.3027986e-38
29.47084 8.4233818 151.85503 1.1790941e-38
37.301147 8.6051817 155.13248 1.6674776e-38
44.656025 8.6362467 155.69252 1.2898006e-38
51.689636 8.6051817 155.13248 7.1876564e-39
58.883881 8.6051817 155.13248 1.1699463e-38
66.798981 8.6990566 156.82483 1.6306016e-38
70.728188 8.3063908 149.74593 1.492055e-38
72.160385 7.7169046 139.1188 2.3509866e-38
72.313705 7.0986362 127.97279 2.3032658e-38
72.245804 6.5540833 118.15569 2.3418047e-38
73.879478 6.2297931 112.30945 2.350987e-38
71.966156 5.6688161 102.19627 1.6578615e-38
74.072586 5.4742346 98.688393 2.3506235e-38
74.879562 5.211853 93.958229 2.3050327e-38
-107.51509 12.549258 123.21951 4.8849292e-39
-101.51077 12.513506 122.86845 4.8856523e-39
-99.204376 12.956462 127.21778 5.6232146e-39
-90.891617 12.621381 123.92767 5.8998042e-39
-85.389862 12.657754 124.28481 7.0976188e-39
-80.087776 12.731132 125.00529 7.650431e-39
-75.383186 12.918354 126.84361 5.6232146e-39
-70.961807 13.189912 129.50999 6.174952e-39
-65.348282 13.269608 130.29253 7.1883753e-39
-59.485703 13.309819 130.68736 5.7146899e-39
-54.08062 13.47313 132.29088 7.3717001e-39
-48.844631 13.725752 134.77133 8.2032503e-39
-43.827274 14.12296 138.67148 1.8981131e-38
-36.344631 13.725752 134.77133 2.2670364e-38
-29.631636 13.514586 132.69794 2.1660188e-38
-23.477791 13.514586 132.69794 1.8154234e-38
-17.06146 13.309819 130.68736 2.2752107e-38
-11.239262 13.598268 133.51959 1.2617101e-38
-4.9402475 13.309819 130.68736 5.0671555e-39
1.1375952 13.514586 132.69794 9.1190927e-39
7.4053702 13.725752 134.77133 1.1422158e-38
13.698177 13.768779 135.19382 1.3909632e-38
19.905371 13.725752 134.77133 1.5841435e-38
26.155371 13.725752 134.77133 6.0809473e-39
32.405373 13.725752 134.77133 1.5846103e-38
40.689865 14.448159 141.86456 1.8331066e-38
46.959866 14.353727 140.93735 1.4365201e-38
54.204369 14.543842 142.80406 7.648273e-39
61.232395 14.640801 143.75609 8.935772e-39
67.449402 14.543842 142.80406 2.2111791e-38
71.92836 14.12296 138.67148 2.22004e-38
71.675644 12.918354 126.84361 1.3908203e-38
71.462654 11.90309 116.87487 2.34173e-38
72.929871 11.291106 110.86588 1.5841765e-38
73.180046 10.583712 103.92007 2.3508404e-38
72.577843 9.848073 96.696922 2.3418025e-38
78.469681 10.027946 98.463074 2.3509886e-38
-99.815071 16.955545 114.39477 4.8845733e-39
-94.510033 16.955545 114.39477 7.0969083e-39
-91.386635 17.370218 117.19247 3.68567e-39
-85.487251 17.276325 116.559 5.0700436e-39
-80.736465 17.417549 117.5118 7.9273794e-39
-74.475151 17.229759 116.24482 7.1891011e-39
-69.271034 17.276325 116.559 1.069109e-38
-64.563614 17.465137 117.83286 6.7281258e-39
-58.14592 17.183443 115.93233 5.9905607e-39
-54.077911 17.609478 118.80669 5.3455557e-39
-49.944141 18.10833 122.17232 5.4359394e-39
-45.702579 18.690762 126.10184 1.0602514e-38
-40.445942 18.968073 127.97279 1.1890371e-38
-34.307617 18.856167 127.21778 1.6400003e-38
-28.324358 18.800707 126.84361 2.3508063e-38
-21.493752 18.006311 121.48402 2.2207939e-38
-15.383284 17.465137 117.83286 1.9073677e-38
-9.8381615 17.323145 116.87487 1.8975345e-38
-4.5285602 17.756224 119.79675 5.5277735e-39
1.047361 18.10833 122.17232 1.5845401e-38
6.6752634 18.006311 121.48402 1.566027e-38
12.592849 18.421442 124.28481 1.7130717e-38
18.095791 18.159775 122.51939 1.8516881e-38
22.868084 17.465137 117.83286 5.6185272e-39
30.057156 18.528233 125.00529 1.2346647e-38
36.274834 18.745573 126.47163 1.3540861e-38
42.640114 18.968073 127.97279 2.2295079e-38
48.864834 19.081316 128.7368 1.0223263e-38
55.497639 19.311905 130.29253 7.279852e-39
61.91404 19.429302 131.08458 7.648273e-39
66.775284 19.081316 128.7368 1.4095832e-38
70.229736 18.421442 124.28481 1.8145939e-38
71.656845 17.370218 117.19247 1.8331418e-38
72.556824 16.348442 110.29879 2.2679723e-38
72.48143 15.255944 102.92799 2.3509869e-38
73.567543 14.52782 98.015518 2.3509478e-38
74.232658 13.806135 93.1465 2.2673961e-38
-94.075706 20.980602 107.81707 5.8998042e-39
-89.523323 21.086031 108.35886 5.8076058e-39
-83.243271 20.772873 106.74957 5.3469934e-39
-78.682297 20.876221 107.28067 6.5440947e-39
-73.524277 20.824419 107.01446 5.5313749e-39
-69.597687 21.139145 108.63181 5.8987252e-39
-66.228119 21.685377 111.43884 5.9887601e-39
-60.746227 21.573883 110.86588 6.1753149e-39
-56.036999 21.741556 111.72753 7.002912e-39
-52.069714 22.260586 114.39477 5.9909111e-39
-47.014084 22.379309 115.00488 1.1976772e-38
-41.240849 22.143114 113.7911 1.538801e-38
-35.869164 22.084845 113.49165 1.787768e-38
-30.287191 21.854794 112.30945 2.2948409e-38
-25.210161 21.969215 112.89745 2.322641e-38
-19.767569 21.741556 111.72753 2.090965e-38
-14.217883 21.192526 108.90613 1.8974261e-38
-9.053071 20.92828 107.5482 1.768243e-38
-4.2126141 21.685377 111.43884 6.6344812e-39
0.95781976 21.741556 111.72753 1.1420716e-38
6.1711421 21.854794 112.30945 8.1982098e-39
11.499259 22.084845 113.49165 1.160764e-38
16.718422 22.026878 113.19377 1.2803639e-38
21.135653 21.192526 108.90613 1.4460645e-38
27.505884 22.260586 114.39477 9.4885801e-39
33.162785 22.499304 115.62152 1.3904942e-38
39.154549 22.86714 117.5118 1.9162605e-38
44.482933 22.805002 117.19247 1.7410532e-38
50.745079 23.182985 119.13488 1.1052286e-38
56.114929 23.11912 118.80669 7.4620853e-39
61.965981 23.247204 119.4649 7.9234152e-39
64.300049 22.143114 113.7911 1.5199669e-38
69.211861 22.026878 113.19377 1.7320531e-38
70.924301 20.980602 107.81707 1.3082381e-38
72.308853 19.981525 102.68292 1.9712902e-38
71.773216 18.608072 95.624893 2.3508779e-38
71.603584 17.483835 89.847557 2.1741566e-38
-78.209961 24.168001 100.29495 4.9785668e-39
-74.0756 24.337801 100.9996 6.1760366e-39
-70.380714 24.684656 102.43902 5.8065296e-39
-65.165756 24.510002 101.71422 5.2529957e-39
-60.879532 24.684656 102.43902 5.9909251e-39
-57.634834 25.346928 105.18739 5.162242e-39
-52.373566 25.162809 104.42331 5.6203433e-39
-47.075016 24.92144 103.42165 5.4359422e-39
-43.531559 25.659853 106.48599 8.6631718e-39
-38.309513 25.471178 105.70301 7.6518701e-39
-34.075706 25.980602 107.81707 1.8242487e-38
-28.859261 25.787197 107.01446 1.8512925e-38
-23.488493 25.346928 105.18739 1.6860633e-38
-18.430632 25.10203 104.17108 2.1001843e-38
-13.216623 24.394932 101.23669 9.4846074e-39
-8.3454752 23.890209 99.142136 5.9808189e-39
-3.9283893 25.041544 103.92007 6.7259594e-39
0.8930397 25.10203 104.17108 1.0776085e-38
5.8367448 25.596651 106.22372 1.1885683e-38
10.65785 25.346928 105.18739 1.6308171e-38
15.688962 25.596651 106.22372 1.6859168e-38
20.023251 24.86182 103.17423 2.2933625e-38
25.604244 25.659853 106.48599 4.2402801e-39
31.001801 26.045715 108.08729 1.0408021e-38
35.834709 25.915812 107.5482 9.6718811e-39
40.822243 25.915812 107.5482 1.1510032e-38
46.861526 26.510818 110.01742 1.1148107e-38
51.438683 26.243032 108.90613 9.5796855e-39
56.489189 26.243032 108.90613 7.462437e-39
61.539696 26.243032 108.90613 7.4638817e-39
67.614662 26.64677 110.58161 1.861017e-38
71.460251 26.176929 108.63181 1.7229765e-38
72.308853 24.743429 102.68292 1.6673343e-38
72.253838 23.196966 96.265244 2.3508386e-38
72.053917 21.786669 90.412636 1.2618893e-38
-77.457138 26.939653 93.753975 5.4384772e-39
-73.428566 27.057295 94.163383 5.8998042e-39
-68.463814 26.823032 93.348114 5.7150613e-39
-64.836502 27.116501 94.369423 4.423235e-39
-62.370842 27.973455 97.351753 4.9756801e-39
-57.856167 27.973455 97.351753 5.161163e-39
-54.073872 28.357531 98.688393 6.6362805e-39
-49.610737 28.422571 98.914742 6.8203186e-39
-44.817997 28.292788 98.463074 3.3183238e-39
-41.000656 28.819164 100.29495 9.4932534e-39
-37.038582 29.365499 102.19627 8.2918586e-39
-31.995966 29.089767 101.23669 1.3542654e-38
-26.018528 27.723133 96.480598 2.3505525e-38
-21.400627 27.538313 95.837395 2.3032294e-38
-16.956182 27.538313 95.837395 1.5291864e-38
-12.511737 27.538313 95.837395 1.8328185e-38
-7.9962149 27.295685 94.993011 3.8682494e-39
-3.6390214 27.661251 96.265244 7.6479157e-39
0.82711059 27.723133 96.480598 1.6672267e-38
5.3132701 27.785294 96.696922 1.648861e-38
9.797575 27.785294 96.696922 1.6488949e-38
14.249929 27.723133 96.480598 1.4921288e-38
18.850718 27.910452 97.132492 1.5287523e-38
23.567543 28.164183 98.015518 4.7916434e-39
28.501656 28.553551 99.370575 1.0774632e-38
33.41795 28.819164 100.29495 1.9900909e-38
38.426571 29.089767 101.23669 1.5655938e-38
43.121407 29.089767 101.23669 2.174586e-38
48.384129 29.435251 102.43902 2.0918291e-38
53.516075 29.646509 103.17423 1.3264276e-38
58.300762 29.646509 103.17423 9.3049063e-39
63.085453 29.646509 103.17423 8.9350377e-39
67.87014 29.646509 103.17423 1.7317619e-38
70.300278 28.685741 99.83062 1.7593501e-38
71.614426 27.416462 95.413338 2.3124501e-38
71.903175 25.92519 90.223488 1.7409462e-38
-72.566765 29.312099 87.834679 5.1618847e-39
-70.503738 30.172413 90.412636 6.452255e-39
-65.622993 29.859421 89.474747 5.0685988e-39
-62.117992 30.172413 90.412636 5.3459046e-39
-58.538734 30.492035 91.370399 4.7001821e-39
-55.237679 31.017759 92.945747 7.1891123e-39
-50.927334 31.017759 92.945747 5.8983623e-39
-46.616985 31.017759 92.945747 8.018859e-39
-42.306641 31.017759 92.945747 7.6482674e-39
-38.578297 31.492868 94.369423 8.6620872e-39
-34.052902 31.355644 93.958229 1.9255572e-38
-29.375608 31.017759 92.945747 1.6121977e-38
-24.382143 30.172413 90.412636 1.9434499e-38
-20.147034 30.109291 90.223488 1.7505264e-38
-15.962933 30.109291 90.223488 1.6120524e-38
-11.608829 29.674723 88.921295 1.0962631e-38
-7.5161109 29.7976 89.289497 3.962973e-39
-3.4835076 30.752651 92.151344 7.0947419e-39
0.79168826 30.818502 92.348671 1.4094389e-38
5.0852327 30.884636 92.546844 1.6770596e-38
9.4174967 31.017759 92.945747 1.7507782e-38
13.639654 30.818502 92.348671 2.3504062e-38
17.509872 30.109291 90.223488 9.7630005e-39
21.469397 29.7976 89.289497 4.3281513e-39
26.658876 31.017759 92.945747 7.9216117e-39
30.969221 31.017759 92.945747 1.2528516e-38
35.279568 31.017759 92.945747 8.6570299e-39
40.461937 31.700972 94.993011 1.1515805e-38
43.900257 31.017759 92.945747 1.8518686e-38
48.314728 31.084753 93.1465 2.1001117e-38
54.275543 32.053989 96.050842 1.2347348e-38
58.729885 32.053989 96.050842 9.6708077e-39
63.184231 32.053989 96.050842 1.1146287e-38
67.041321 31.77095 95.202713 1.299345e-38
69.762329 31.017759 92.945747 2.2751031e-38
70.865402 29.674723 88.921295 1.7226497e-38
-69.185013 31.829594 83.741417 4.3324785e-39
-66.992592 32.653866 85.910019 4.6079864e-39
-62.14201 32.204796 84.728539 4.2392039e-39
-59.024467 32.653866 85.910019 5.2533558e-39
-55.706215 33.048874 86.949249 4.6079906e-39
-51.569984 32.982376 86.7743 4.8845733e-39
-48.126846 33.385418 87.834679 5.2533558e-39
-43.60944 33.048874 86.949249 5.6206992e-39
-40.391525 33.728889 88.738327 1.0600705e-38
-35.980167 33.453552 88.013931 8.4780421e-39
-31.512665 33.048874 86.949249 1.198039e-38
-27.425114 32.982376 86.7743 1.2711457e-38
-22.715395 32.016094 84.232086 1.1795634e-38
-18.882906 32.141647 84.562408 8.4729876e-39
-15.079608 32.395733 85.230888 8.2918488e-39
-10.78598 31.40276 82.618446 1.5017068e-38
-7.2172599 32.588947 85.73922 3.9608121e-39
-3.2605631 32.784481 86.253654 1.1331414e-38
0.73796093 32.719044 86.08149 1.4185143e-38
4.758471 32.916145 86.60006 1.353942e-38
8.7921906 32.982376 86.7743 1.4091865e-38
12.816335 32.982376 86.7743 1.2434865e-38
16.874434 33.048874 86.949249 1.78683e-38
20.057484 31.706461 83.417465 1.4457411e-38
24.888769 32.982376 86.7743 5.7125291e-39
28.971207 33.048874 86.949249 1.0960109e-38
32.937061 32.982376 86.7743 1.3910722e-38
36.886986 32.916145 86.60006 1.4187308e-38
41.234249 33.182674 87.30127 1.7229389e-38
45.374683 33.249981 87.478355 1.1054818e-38
50.350658 33.868267 89.105019 1.0960825e-38
55.051605 34.221798 90.035133 7.9237669e-39
60.232948 34.803059 91.564392 1.1237766e-38
63.801929 34.437481 90.602577 1.2255508e-38
64.739441 32.784481 86.253654 1.1883137e-38
69.574333 33.182674 87.30127 1.5473019e-38
-66.227287 34.186321 80.161392 4.9778508e-39
-59.905838 34.83379 81.679596 4.7920176e-39
-56.224445 34.899887 81.834587 6.1735171e-39
-52.830368 35.166809 82.460472 4.9771193e-39
-48.912754 35.099697 82.303108 6.3578957e-39
-45.095959 35.099697 82.303108 5.8987281e-39
-41.757301 35.506256 83.256424 6.6348455e-39
-38.191212 35.78257 83.904335 6.267142e-39
-34.300159 35.78257 83.904335 8.0152577e-39
-29.658979 34.899887 81.834587 5.6188873e-39
-25.863913 34.899887 81.834587 1.0593488e-38
-21.861431 34.57188 81.065468 1.2893319e-38
-17.933485 34.249985 80.310669 1.7684623e-38
-14.342635 34.57188 81.065468 1.8057686e-38
-10.144651 33.139172 77.705994 1.3540122e-38
-6.8366885 34.63699 81.218132 4.5154279e-39
-3.0702102 34.63699 81.218132 1.5480563e-38
0.70022428 34.83379 81.679596 1.3358985e-38
4.4881034 34.83379 81.679596 1.6394234e-38
8.2759819 34.83379 81.679596 1.3174965e-38
12.063861 34.83379 81.679596 1.7408387e-38
15.881819 34.899887 81.834587 1.261782e-38
19.167686 33.99675 79.716873 1.8698761e-38
23.339092 34.702343 81.371376 2.9498972e-39
27.318857 34.966236 81.990166 9.9499268e-39
30.886261 34.702343 81.371376 1.1793825e-38
34.92342 34.966236 81.990166 1.0042824e-38
38.7257 34.966236 81.990166 1.3268955e-38
42.447285 34.899887 81.834587 1.1976045e-38
47.228138 35.643879 83.579124 6.5401066e-39
51.302956 35.78257 83.904335 7.8272665e-39
55.736187 36.134068 84.728539 9.580054e-39
60.019207 36.348301 85.230888 1.2157562e-38
62.976109 35.78257 83.904335 1.1512545e-38
66.479149 35.574932 83.417465 1.2525618e-38
-61.96571 35.464767 75.003181 3.963696e-39
-59.840359 36.285126 76.738129 4.0558917e-39
-56.181675 36.220676 76.60183 5.3473493e-39
-53.387897 36.742775 77.705994 5.5310245e-39
-49.516636 36.545235 77.288223 6.1760198e-39
-47.028042 37.416954 79.131798 5.2529901e-39
-42.886173 37.00951 78.270103 6.4515389e-39
-39.615902 37.348427 78.986862 6.8199669e-39
-35.306263 36.676693 77.566238 1.547623e-38
-31.426527 36.349804 76.874916 1.2342306e-38
-27.615339 36.028694 76.195808 9.8573626e-39
-24.167166 36.156456 76.466003 9.9513477e-39
-20.657694 36.220676 76.60183 7.6471954e-39
-16.865643 35.713207 75.528595 9.2123589e-39
-13.457287 35.965153 76.061424 1.7223628e-38
-9.6574297 34.978115 73.973976 4.5111007e-39
-6.482646 36.414715 77.012192 4.4221504e-39
-2.9112172 36.414715 77.012192 1.4368452e-38
0.6602115 36.414715 77.012192 1.3819608e-38
4.1720395 35.901833 75.927513 1.1792395e-38
7.8030686 36.414715 77.012192 1.2345204e-38
11.43576 36.610844 77.426979 1.0683878e-38
14.972663 36.479858 77.149963 8.0134528e-39
18.418684 36.220676 76.60183 1.6394235e-38
21.893307 36.092461 76.330666 3.1328465e-39
26.079344 37.00951 78.270103 7.0025603e-39
29.283934 36.479858 77.149963 6.8174333e-39
32.979748 36.610844 77.426979 1.050489e-38
36.968636 37.00951 78.270103 5.712162e-39
40.820656 37.21212 78.698593 1.6215976e-38
44.308578 37.076801 78.412415 4.2377508e-39
48.473747 37.485737 79.27726 1.4279859e-38
52.150219 37.485737 79.27726 8.5641056e-39
56.240219 37.763409 79.864494 1.1604391e-38
59.176819 37.280148 78.842461 1.1420718e-38
63.884235 37.903793 80.161392 9.0279564e-39
-60.802528 38.212017 73.595268 3.1328564e-39
-57.389561 38.212017 73.595268 4.1484502e-39
-53.976589 38.212017 73.595268 5.715413e-39
-51.620701 39.010872 75.13385 3.3172504e-39
-47.231251 38.277336 73.721077 6.6359245e-39
-43.962749 38.408646 73.973976 5.1615133e-39
-40.812233 38.673992 74.485023 5.1593553e-39
-37.293591 38.607311 74.356598 7.4638789e-39
-34.021286 38.808044 74.743202 8.6613459e-39
-30.188839 38.342876 73.847305 1.0318698e-38
-26.313606 37.697376 72.604088 5.5277707e-39
-22.946602 37.697376 72.604088 9.3988942e-39
-19.612617 37.760944 72.726524 8.3829542e-39
-16.294893 37.888733 72.972633 7.5510313e-39
-12.738367 37.382706 71.998047 6.6337637e-39
-9.2603321 36.829342 70.932281 2.9484553e-39
-6.1426086 37.888733 72.972633 5.1611504e-39
-2.753854 37.82473 72.849373 1.4277712e-38
0.62877285 38.082043 73.344948 1.2531742e-38
4.0857215 38.607311 74.356598 9.7658844e-39
7.3937707 37.888733 72.972633 1.851328e-38
10.796133 37.95295 73.096321 1.2065031e-38
14.210049 38.017387 73.220421 1.3543005e-38
17.516417 37.82473 72.849373 1.132852e-38
20.344933 36.829342 70.932281 8.1060029e-39
24.396807 38.017387 73.220421 3.9622569e-39
27.792393 38.017387 73.220421 7.9234292e-39
31.563091 38.47464 74.101082 7.4624398e-39
34.760612 38.212017 73.595268 6.8170704e-39
38.836319 38.87542 74.872963 8.3833059e-39
43.056042 39.562263 76.195808 1.1792746e-38
46.837868 39.773075 76.60183 1.2434868e-38
50.300919 39.702557 76.466003 1.0686033e-38
54.038647 39.843845 76.738129 1.4548502e-38
57.700035 39.914867 76.874916 1.7875489e-38
60.192154 39.215832 75.528595 1.0404054e-38
-57.375656 39.278973 69.447388 4.2392039e-39
-55.312965 40.118816 70.932281 5.529577e-39
-51.852921 39.987282 70.699715 5.9920027e-39
-48.734016 40.118816 70.932281 5.0700464e-39
-45.444542 40.118816 70.932281 5.8951085e-39
-41.811226 39.791584 70.353714 6.5419339e-39
-38.548584 39.791584 70.353714 7.1869403e-39
-35.752533 40.317753 71.284012 7.5564375e-39
-32.0233 39.791584 70.353714 8.015608e-39
-28.527964 39.469646 69.784508 7.8315867e-39
-25.048529 39.09013 69.11351 7.0018246e-39
-21.808451 39.027584 69.002922 7.1869375e-39
-18.66819 39.152874 69.224442 6.4493781e-39
-15.310464 38.779396 68.564117 6.1717094e-39
-11.922316 38.112877 67.385666 5.4355863e-39
-9.0664759 39.278973 69.447388 2.9480994e-39
-5.9125109 39.726776 70.239136 5.8983651e-39
-2.6595132 39.791584 70.353714 1.7045002e-38
0.59632003 39.342323 69.559402 1.0407302e-38
3.8784263 39.921833 70.584007 8.0152577e-39
7.093699 39.597794 70.011086 1.0683525e-38
10.357266 39.662182 70.124924 1.6027971e-38
13.676011 39.856602 70.468674 9.9509917e-39
16.671574 39.21582 69.335739 1.0777527e-38
19.418711 38.292374 67.703026 1.4642873e-38
23.102442 39.21582 69.335739 4.239557e-39
26.402773 39.342323 69.559402 1.1234882e-38
30.065006 39.921833 70.584007 8.0184877e-39
33.447815 40.05294 70.815811 6.2635407e-39
36.974743 40.317753 71.284012 6.2657001e-39
39.950359 39.987282 70.699715 1.0960839e-38
43.37125 40.118816 70.932281 1.3819957e-38
47.441002 40.7897 72.118439 1.3728846e-38
51.649181 41.483402 73.344948 7.3734728e-39
54.957077 41.412971 73.220421 1.2894038e-38
59.258137 42.055588 74.356598 2.2399923e-38
-54.985004 40.728767 66.553749 4.2399284e-39
-49.115345 40.981739 66.967125 5.1608001e-39
-45.375622 40.416908 66.044144 5.712176e-39
-42.573624 40.666012 66.451202 7.7390379e-39
-39.98484 41.173542 67.28054 7.9255872e-39
-36.922318 41.237877 67.385666 6.8203186e-39
-33.903263 41.367149 67.596909 5.9891132e-39
-30.672316 41.237877 67.385666 5.9898307e-39
-27.547316 41.237877 67.385666 6.3571797e-39
-24.422316 41.237877 67.385666 5.2519111e-39
-21.066896 40.791718 66.656609 4.6998219e-39
-17.729088 40.232075 65.742119 5.9905551e-39
-14.725202 40.35511 65.943161 4.3292387e-39
-11.090526 38.360817 62.684341 6.6344854e-39
-8.5178242 39.927746 65.24482 3.5005501e-39
-5.5764694 40.541077 66.247047 5.3451885e-39
-2.5042729 40.541077 66.247047 8.1067274e-39
0.5661844 40.416908 66.044144 1.7043204e-38
3.6626251 40.791718 66.656609 1.3450829e-38
6.7538152 40.791718 66.656609 1.234232e-38
9.8908672 40.981739 66.967125 1.2621791e-38
13.036945 41.109409 67.175743 1.2435592e-38
16.15221 41.109409 67.175743 1.0040666e-38
18.856279 40.232075 65.742119 1.5474811e-38
22.209766 40.791718 66.656609 2.5807616e-39
25.577686 41.237877 67.385666 4.0544469e-39
28.747604 41.30241 67.491127 6.7248832e-39
31.580959 40.918201 66.863297 6.6348512e-39
34.8438 41.109409 67.175743 5.528498e-39
37.841179 40.981739 66.967125 9.0312018e-39
41.138409 41.173542 67.28054 1.4830864e-38
45.174713 42.02586 68.673294 5.1601036e-39
47.826328 41.562584 67.916267 1.630347e-38
52.209225 42.56813 69.559402 8.933977e-39
55.345764 42.499584 69.447388 1.243129e-38
-50.045063 42.250359 64.176826 5.4355891e-39
-47.209377 42.37648 64.368401 5.9894789e-39
-44.2243 42.37648 64.368401 5.5295798e-39
-41.055397 42.18758 64.081467 7.1891039e-39
-38.140301 42.250359 64.176826 7.8315825e-39
-35.111862 42.18758 64.081467 7.0969083e-39
-32.284004 42.37648 64.368401 5.1604259e-39
-28.953218 41.876461 63.608891 4.698373e-39
-25.775267 41.509125 63.050919 6.9110695e-39
-23.019562 41.814789 63.515209 6.5419198e-39
-19.811457 41.267792 62.684341 5.2544489e-39
-16.978514 41.448528 62.958874 6.0849116e-39
-14.017878 41.327862 62.775585 7.5575305e-39
-10.777234 40.102036 60.913597 5.3437438e-39
-8.1598282 41.148174 62.502647 4.3303107e-39
-5.3543978 41.876461 63.608891 5.4373814e-39
-2.408097 41.938316 63.702847 6.7284859e-39
0.5453074 41.876461 63.608891 1.2990199e-38
3.5263667 42.250359 64.176826 6.9078213e-39
6.5317168 42.439823 64.464615 1.3915408e-38
9.4787483 42.250359 64.176826 1.2064277e-38
12.381241 42.000355 63.797081 2.0087091e-38
15.339821 42.000355 63.797081 1.3358968e-38
18.137417 41.630852 63.235817 1.2985886e-38
20.469685 40.444786 61.434227 3.4983879e-39
24.359701 42.250359 64.176826 3.3168819e-39
27.335892 42.250359 64.176826 6.5401276e-39
30.312082 42.250359 64.176826 5.8040059e-39
33.288273 42.250359 64.176826 6.2657001e-39
36.264462 42.250359 64.176826 5.9905551e-39
39.240654 42.250359 64.176826 7.3698882e-39
42.029213 42.06258 63.891598 9.4914555e-39
45.125881 42.18758 64.081467 5.7135969e-39
49.344086 43.280857 65.742119 9.4878584e-39
52.392864 43.280857 65.742119 1.1789149e-38
-47.770287 43.170795 61.259697 5.9898503e-39
-44.738731 42.98761 60.999756 4.6980128e-39
-42.208378 43.293789 61.434227 7.7426406e-39
-39.191891 43.109562 61.172806 1.0041052e-38
-36.510372 43.293789 61.434227 9.4893017e-39
-33.470654 43.0485 61.086159 6.4482851e-39
-30.724833 43.170795 61.259697 5.897635e-39
-27.609398 42.74577 60.656578 4.976406e-39
-24.831383 42.805973 60.742012 7.3742085e-39
-21.799557 42.388062 60.148994 5.2519111e-39
-19.090031 42.566162 60.401718 6.266063e-39
-16.334665 42.68573 60.571388 4.0548155e-39
-13.468925 42.50663 60.317242 4.6076235e-39
-10.395479 41.406322 58.755898 3.5001941e-39
-7.9411588 42.866348 60.827682 3.2250548e-39
-5.1493359 43.109562 61.172806 7.0969027e-39
-2.3026576 42.926895 60.913597 1.0411254e-38
0.52220118 42.926895 60.913597 5.9876923e-39
3.3660774 43.170795 61.259697 7.1851453e-39
6.2069864 43.170795 61.259697 8.5680601e-39
9.0478954 43.170795 61.259697 1.2437026e-38
11.888804 43.170795 61.259697 8.6609942e-39
14.750667 43.232208 61.34684 7.1840719e-39
17.446712 42.866348 60.827682 6.3575342e-39
19.684546 41.633205 59.077847 8.1985601e-39
22.991179 42.68573 60.571388 3.3165315e-39
25.691914 42.50663 60.317242 8.5691475e-39
28.975418 43.232208 61.34684 4.9753242e-39
31.595648 42.926895 60.913597 4.7001863e-39
34.566978 43.109562 61.172806 5.9894761e-39
37.617287 43.355549 61.521866 7.0029148e-39
40.470356 43.355549 61.521866 5.9898559e-39
44.077969 44.110653 62.593365 7.1873033e-39
47.74295 44.826313 63.608891 9.7579685e-39
51.145416 45.226551 64.176826 4.3313855e-39
-45.446327 43.7733 58.279499 8.8457372e-39
-43.688236 44.740665 59.56744 8.1974909e-39
-40.313309 44.071075 58.675957 1.2904489e-38
-38.428764 45.051796 59.981682 1.0503817e-38
-35.014046 44.251694 58.916431 1.0411974e-38
-32.106361 44.011196 58.596233 9.3048965e-39
-29.269665 43.832531 58.35836 6.3578943e-39
-26.744253 44.131119 58.755898 8.5687818e-39
-23.954187 44.011196 58.596233 8.9357748e-39
-21.236795 44.011196 58.596233 5.2519167e-39
-18.394442 43.714226 58.200848 4.8824153e-39
-15.737864 43.832531 58.35836 4.1470125e-39
-12.621601 42.453789 56.522709 4.9753298e-39
-10.133176 43.017586 57.273342 2.9470232e-39
-7.7445416 44.556042 59.321632 3.7785817e-39
-4.9594011 44.251694 58.916431 4.5143489e-39
-2.2241223 44.191326 58.836056 7.0940202e-39
0.50370359 44.131119 58.755898 6.8181606e-39
3.241749 44.312233 58.997028 8.2010923e-39
5.9532948 44.131119 58.755898 8.2925606e-39
8.7616482 44.556042 59.321632 1.1055555e-38
11.449683 44.312233 58.997028 9.2145211e-39
14.166283 44.251694 58.916431 8.8439281e-39
16.783878 43.951481 58.516727 1.972298e-38
18.957413 42.733826 56.89555 1.4828703e-38
22.121243 43.7733 58.279499 3.591308e-39
25.061008 44.191326 58.836056 8.6678059e-39
27.676249 44.011196 58.596233 1.0590977e-38
30.60153 44.312233 58.997028 4.6076235e-39
33.246548 44.191326 58.836056 4.6079892e-39
36.024208 44.251694 58.916431 4.1470125e-39
38.650845 44.131119 58.755898 5.8962015e-39
41.545444 44.312233 58.997028 8.8439435e-39
45.335743 45.367283 60.401718 1.2254429e-38
49.099598 46.274632 61.609753 1.3361162e-38
-44.721119 45.734364 57.349506 7.9266662e-39
-42.343082 46.040485 57.733372 5.9887601e-39
-40.423306 46.919838 58.836056 7.1876732e-39
-37.338219 46.476002 58.279499 1.1889634e-38
-34.49567 46.288345 58.044182 1.4274813e-38
-31.932814 46.476002 58.279499 1.0041382e-38
-28.725473 45.673626 57.273342 4.9778508e-39
-26.17371 45.856323 57.502438 7.0954636e-39
-23.507042 45.856323 57.502438 5.8065184e-39
-20.896099 45.978931 57.656189 4.0559057e-39
-18.519405 46.728588 58.596233 4.8842132e-39
-15.222882 45.016022 56.448727 4.3310394e-39
-12.022823 42.93663 53.841232 4.6076263e-39
-10.066335 45.372349 56.89555 2.3960158e-39
-7.7659059 47.437572 59.485279 3.5027207e-39
-5.0072851 47.437572 59.485279 5.0689646e-39
-2.2424781 47.307072 59.321632 6.173873e-39
0.50233483 46.728588 58.596233 6.728123e-39
3.2110007 46.601952 58.437435 7.740833e-39
5.8575315 46.1022 57.81076 8.8450197e-39
8.607728 46.476002 58.279499 8.754266e-39
11.341083 46.601952 58.437435 6.9096304e-39
13.826291 45.856323 57.502438 1.0131431e-38
16.383734 45.552639 57.121628 1.0403698e-38
18.710571 44.781563 56.154724 1.4831588e-38
21.595936 45.372349 56.89555 3.501992e-39
24.492958 45.856323 57.502438 4.4214372e-39
27.2687 46.040485 57.733372 5.8969204e-39
30.270256 46.538891 58.35836 5.8076114e-39
32.799084 46.288345 58.044182 4.7905728e-39
35.877171 46.792164 58.675957 5.1618847e-39
37.978207 46.040485 57.733372 4.9742452e-39
41.947124 47.503094 59.56744 3.501992e-39
44.833405 47.634682 59.732449 8.3822325e-39
48.13686 48.168404 60.401718 9.3970921e-39
