# .PCD v0.7 - Point Cloud Data file format
VERSION 0.7
FIELDS x y z rgb
SIZE 4 4 4 4
TYPE F F F F
COUNT 1 1 1 1
WIDTH 1074
HEIGHT 1
VIEWPOINT 0 0 0 1 0 0 0
POINTS 1074
DATA ascii
93.009766 -156.86227 245.03879 5.0689646e-39
113.39333 -170.41827 266.215 4.6065417e-39
128.11143 -173.63371 271.23792 3.9622541e-39
139.81075 -172.54851 269.54266 3.4094432e-39
154.23872 -174.73267 272.95462 4.5190418e-39
187.01929 -195.79971 305.86401 4.6090808e-39
208.60088 -202.99823 317.10904 1.208922e-38
242.95775 -220.86208 345.01462 2.332621e-38
291.61908 -248.71857 388.52997 2.3509883e-38
-65.018761 -46.729488 78.698593 2.3509143e-38
-61.145969 -46.559563 78.412415 5.4388289e-39
-57.93092 -46.900661 78.986862 4.425393e-39
-54.567738 -47.159779 79.423256 3.5030808e-39
-50.697765 -46.986717 79.131798 4.9778508e-39
-47.201256 -47.159779 79.423256 1.079409e-38
-56.262577 -60.970856 102.68292 2.76515e-39
-51.256592 -60.681896 102.19627 5.8065324e-39
-47.646317 -62.154758 104.67677 3.8700557e-39
-49.384544 -71.730423 120.80344 5.0667954e-39
-46.937782 -76.900177 129.50999 8.4765889e-39
-44.984428 -84.514061 142.33276 8.2914746e-39
-45.078613 -99.254883 167.15825 5.9880258e-39
-44.584637 -118.55444 199.66124 8.5680601e-39
-39.741051 -133.37375 224.6189 7.368798e-39
-33.119305 -150.63388 253.68723 1.0775118e-38
-22.135864 -156.14488 262.96848 6.7270468e-39
-11.243321 -176.60524 297.42639 5.8047388e-39
2.3548944 -163.10675 274.69318 5.3451913e-39
15.093748 -163.10675 274.69318 5.1597155e-39
29.525126 -173.02541 291.39749 5.8050877e-39
43.331417 -174.20245 293.37979 6.3579083e-39
61.997917 -189.68712 319.45798 6.2667931e-39
64.810745 -160.04851 269.54266 5.712176e-39
73.193604 -151.52521 255.18832 3.8686165e-39
87.089203 -155.19855 261.37473 3.2246862e-39
101.04765 -158.07259 266.215 2.9481022e-39
113.39333 -158.07259 266.215 7.461358e-39
127.31075 -160.04851 269.54266 8.3847562e-39
138.94235 -159.05441 267.8685 8.8453687e-39
153.26868 -161.0551 271.23792 8.9397279e-39
191.08492 -185.56348 312.51324 3.3190427e-39
225.15649 -203.23619 342.2764 3.7775223e-39
266.40103 -224.62947 378.30551 3.962617e-39
291.61908 -230.70055 388.52997 8.303757e-39
-65.256927 -43.237656 78.986862 2.3509886e-38
-61.481319 -43.158611 78.842461 6.2689497e-39
-58.143902 -43.396618 79.27726 4.7016254e-39
-54.870892 -43.718075 79.864494 4.0562546e-39
-51.072609 -43.637264 79.716873 4.1480985e-39
-56.262577 -56.208954 102.68292 3.7778628e-39
-51.135418 -55.810307 101.95467 4.2402857e-39
-47.530949 -57.161648 104.42331 5.1622658e-39
-57.804203 -77.402489 141.39943 6.3564804e-39
-50.912971 -76.898239 140.47827 2.7651528e-39
-45.739201 -79.220673 144.7209 4.422505e-39
-45.254013 -91.858986 167.80867 7.0021777e-39
-45.212589 -110.83456 202.47337 9.1212339e-39
-39.94912 -123.60084 225.79491 1.0225421e-38
-38.563572 -161.69699 295.38922 1.8342637e-38
-25.210289 -163.94278 299.49185 2.341805e-38
-10.868544 -157.38507 287.51218 2.3509883e-38
2.4813318 -158.44135 289.4418 2.341805e-38
16.011612 -159.51189 291.39749 2.341805e-38
29.929579 -161.69699 295.38922 2.2866678e-38
46.494297 -172.31941 314.79437 1.2251299e-38
58.529499 -165.08923 301.58621 7.0011197e-39
80.385414 -183.00589 334.3165 5.6206936e-39
95.15168 -181.59816 331.74484 4.0533679e-39
99.101509 -162.81213 297.42639 5.8951141e-39
103.60581 -149.4162 272.95462 5.2508293e-39
114.09763 -146.63205 267.8685 7.8301405e-39
125.73901 -145.72691 266.215 9.0272334e-39
139.81075 -147.54851 269.54266 1.0042108e-38
152.31075 -147.54851 269.54266 7.09293e-39
209.28348 -187.36317 342.2764 3.8704256e-39
273.60107 -212.68253 388.52997 4.0548127e-39
-65.738525 -39.866714 79.569794 2.3509886e-38
-62.048492 -39.866714 79.569794 5.7186612e-39
-58.574596 -40.01437 79.864494 4.7023443e-39
-55.591522 -40.539886 80.913376 3.6874735e-39
-52.132607 -40.76936 81.371376 3.4112495e-39
-49.76754 -41.956814 83.741417 5.7150416e-39
-55.863552 -51.082176 101.95467 3.9622653e-39
-51.500671 -51.447048 102.68292 3.0417425e-39
-47.646317 -52.446018 104.67677 6.0824004e-39
-56.326778 -69.034378 137.7854 2.3509883e-38
-51.415401 -71.078156 141.86456 3.7793048e-39
-53.24329 -84.405312 168.46417 2.3508092e-38
-49.490562 -91.947914 183.51842 3.0417397e-39
-48.151409 -108.0388 215.63414 4.6990918e-39
-41.023022 -116.17075 231.86467 9.3978208e-39
-39.931076 -153.24652 305.86401 1.6137146e-38
-24.528931 -145.99838 291.39749 2.3509886e-38
-11.3214 -150.05389 299.49185 2.3509886e-38
2.4484665 -143.09775 285.60812 2.3509886e-38
14.022003 -127.85657 255.18832 2.3509886e-38
32.130283 -158.88058 317.10904 2.3509886e-38
46.157379 -156.57797 312.51324 2.3509886e-38
62.460587 -161.25194 321.84201 2.3509886e-38
77.967812 -162.46436 324.26187 2.3509883e-38
97.399361 -170.13985 339.58133 1.0872588e-38
102.64085 -154.34114 308.04877 9.3041888e-39
103.60581 -136.75798 272.95462 8.2911243e-39
114.09763 -134.20969 267.8685 8.9357608e-39
126.52 -134.20969 267.8685 9.396739e-39
139.81075 -135.04851 269.54266 1.041161e-38
153.26868 -135.89786 271.23792 6.910722e-39
-65.860039 -36.243549 79.716873 2.3509886e-38
-63.453362 -36.995773 81.371376 6.8210375e-39
-59.905838 -37.13591 81.679596 4.4254014e-39
-56.438633 -37.348114 82.146339 3.5949107e-39
-53.651031 -38.073322 83.741417 3.9636988e-39
-50.157108 -38.371349 84.396927 5.9891258e-39
-56.803562 -47.134037 103.67026 7.0882441e-39
-52.500683 -47.591652 104.67677 3.0417397e-39
-47.878738 -47.823807 105.18739 6.8203214e-39
-57.055927 -63.455536 139.56902 2.3509527e-38
-51.585091 -64.712082 142.33276 4.0558888e-39
-53.452087 -76.893173 169.12482 2.3142544e-38
-50.130524 -84.516205 185.89149 3.7793048e-39
-51.224903 -104.29659 229.39803 4.2391941e-39
-44.621532 -114.66526 252.20367 3.3176035e-39
-37.787125 -131.5957 289.4418 2.1576307e-38
-11.166312 -134.29973 295.38922 2.3509886e-38
2.2963877 -121.78733 267.8685 2.3509886e-38
15.190503 -125.69077 276.45404 2.3509886e-38
28.560251 -128.15529 281.87469 2.3509886e-38
48.255444 -148.54364 326.71838 2.3509886e-38
59.359707 -139.06213 305.86401 2.3509886e-38
76.812729 -145.24266 319.45798 2.3509886e-38
93.709991 -148.54364 326.71838 2.3509524e-38
100.48754 -137.1172 301.58621 1.1883137e-38
103.60581 -124.09975 272.95462 5.4373842e-39
114.09763 -121.78733 267.8685 8.6602571e-39
124.2056 -119.55951 262.96848 9.0301285e-39
138.08469 -121.03555 266.215 8.6606271e-39
148.59584 -119.55951 262.96848 1.0688561e-38
-66.848557 -33.035198 80.913376 2.350952e-38
-63.096214 -33.035198 80.913376 2.3504433e-38
-61.180431 -34.057564 83.417465 4.5172327e-39
-57.091103 -33.926319 83.096008 4.2406458e-39
-54.821987 -34.936031 85.569099 4.0562546e-39
-50.954834 -35.005486 85.73922 5.6232202e-39
-59.223766 -44.129723 108.08729 1.3920032e-38
-53.540302 -43.583565 106.74957 3.0417397e-39
-49.075706 -44.019402 107.81707 6.6362903e-39
-56.871876 -56.799225 139.1188 1.0963342e-38
-51.585091 -58.11142 142.33276 3.6863861e-39
-55.40765 -71.576263 175.3123 1.4288532e-38
-51.461426 -77.910446 190.82668 3.9611723e-39
-52.33849 -95.694351 234.38493 4.2381151e-39
-43.108936 -99.478867 243.65439 3.5019948e-39
-37.286633 -116.60768 285.60812 1.2175535e-38
37.348022 -150.49367 368.60538 2.341805e-38
49.763428 -137.56062 336.92834 2.341805e-38
65.903297 -138.64378 339.58133 2.341805e-38
84.997696 -144.3259 353.4986 2.3509883e-38
93.005402 -132.38918 324.26187 2.3509862e-38
100.48754 -123.13119 301.58621 1.3906045e-38
103.60581 -111.44152 272.95462 9.4007004e-39
108.05717 -103.57506 253.68723 1.2255534e-38
120.53088 -104.18793 255.18832 1.0780401e-38
129.30473 -101.77896 249.28802 1.0229393e-38
140.86543 -101.77896 249.28802 1.0228317e-38
-229.45294 -95.169266 262.96848 2.1948625e-38
-69.627914 -32.314201 89.289497 1.9555053e-38
-63.770729 -31.467258 86.949249 4.2399284e-39
-59.024467 -31.091156 85.910019 4.0566189e-39
-55.371307 -31.278076 86.426506 3.5038011e-39
-51.673958 -31.467258 86.949249 5.3462759e-39
-48.722233 -32.18095 88.921295 1.236281e-38
-54.347443 -39.215477 108.35886 2.9495441e-39
-49.322315 -39.215477 108.35886 5.9909209e-39
-57.615299 -51.005753 140.93735 7.0079329e-39
-52.275192 -52.199867 144.23688 4.0544497e-39
-58.249069 -66.699829 184.30269 6.2657127e-39
-51.920902 -69.677498 192.53049 3.5027151e-39
-54.408371 -88.179436 243.65439 4.5118055e-39
-43.601608 -89.187202 246.43901 3.5016291e-39
-38.563572 -106.90247 295.38922 1.3192599e-38
33.873787 -120.99039 334.3165 2.3509886e-38
45.49799 -111.484 308.04877 2.3509527e-38
67.497734 -125.86903 347.797 2.3418043e-38
77.385963 -116.47582 321.84201 2.3509886e-38
88.355133 -111.484 308.04877 2.3509886e-38
98.422729 -106.90247 295.38922 2.3325835e-38
102.31075 -97.5485 269.54266 1.1432621e-38
109.99831 -93.459641 258.24448 1.078148e-38
116.39839 -89.187202 246.43901 1.0227953e-38
128.5616 -89.699768 247.85533 8.5687958e-39
137.68202 -88.179436 243.65439 9.5833022e-39
-223.8999 -76.879997 243.65439 1.0612528e-38
-212.60046 -76.879997 243.65439 2.3141456e-38
-199.05185 -76.021004 240.93201 2.3509846e-38
-64.289192 -27.658049 87.656151 2.9517049e-39
-59.859158 -27.490423 87.124908 3.8718647e-39
-56.735691 -27.942013 88.556114 3.0428215e-39
-52.306698 -27.770939 88.013931 3.7796691e-39
-49.025482 -28.231867 89.474747 5.439175e-39
-55.8922 -35.16217 111.43884 2.7658689e-39
-49.696915 -34.450024 109.18185 5.5313861e-39
-58.185749 -44.910099 142.33276 6.5487414e-39
-54.651337 -47.579578 150.79311 4.3328275e-39
-49.206795 -49.125488 155.69252 6.0827536e-39
-51.461426 -60.211327 190.82668 3.9633247e-39
-54.71751 -77.316818 245.03879 6.0838073e-39
-43.353874 -77.316818 245.03879 4.6061816e-39
-39.099178 -94.498329 299.49185 7.5676339e-39
-25.210289 -94.498329 299.49185 2.3509883e-38
-12.540627 -104.67508 331.74484 2.3509883e-38
2.5854435 -95.159157 301.58621 2.3509886e-38
16.011612 -91.944321 291.39749 2.3509886e-38
55.874725 -119.36632 378.30551 2.3509886e-38
58.123047 -94.498329 299.49185 2.3509886e-38
73.026184 -95.829292 303.71005 2.3509886e-38
87.110695 -95.829292 303.71005 2.3509886e-38
93.30986 -88.362076 280.04434 2.3509886e-38
101.67527 -84.520248 267.8685 2.3418042e-38
104.96982 -77.758629 246.43901 1.0597091e-38
115.73704 -77.316818 245.03879 1.0689651e-38
124.27621 -75.598663 239.59349 1.0135757e-38
134.63933 -75.180992 238.26976 1.0045359e-38
148.14449 -76.44809 242.28555 1.0327742e-38
-210.22504 -64.847824 240.93201 8.9468899e-39
-202.44479 -65.953178 245.03879 1.5036073e-38
-65.351822 -23.982975 89.105019 4.0530078e-39
-61.34634 -24.032629 89.289497 3.6874735e-39
-56.852432 -23.884279 88.738327 3.0417425e-39
-53.064766 -24.032629 89.289497 3.8718675e-39
-50.170452 -24.644926 91.564392 4.9789269e-39
-56.328861 -30.22854 112.30945 4.2413647e-39
-50.724243 -29.994211 111.43884 3.9636988e-39
-60.585163 -39.88921 148.20216 4.516867e-39
-55.623779 -41.308754 153.47626 1.5121827e-38
-49.029793 -41.754532 155.13248 4.3314023e-39
-54.602261 -54.496525 202.47337 5.8061415e-39
-52.913635 -63.7789 236.96059 1.5211505e-38
-43.353874 -65.953178 245.03879 2.2952396e-38
-38.563572 -79.505203 295.38922 1.2528139e-38
-33.305336 -106.49321 395.65897 2.350952e-38
-15.095201 -107.47926 399.32248 2.3509886e-38
2.7798378 -87.27639 324.26187 2.3509886e-38
57.384853 -104.57441 388.52997 2.3509527e-38
70.929817 -98.37085 365.4816 2.3509883e-38
76.812729 -85.983406 319.45798 2.3509886e-38
87.7285 -82.324539 305.86401 2.3509879e-38
97.092697 -78.430809 291.39749 2.3325846e-38
102.31075 -72.5485 269.54266 2.3509886e-38
103.78372 -65.580566 243.65439 2.1466051e-38
113.79731 -64.847824 240.93201 1.0505259e-38
122.2389 -63.430382 235.66573 1.0136473e-38
130.31935 -62.073582 230.62476 9.7676949e-39
140.26447 -61.743404 229.39803 8.4787638e-39
253.30106 -103.64072 385.06097 1.4110539e-38
-230.40862 -55.85907 250.73737 5.4434812e-39
-226.68845 -57.878071 259.80017 6.1788798e-39
-224.08983 -60.426163 271.23792 5.4416833e-39
-67.586075 -20.529402 92.151344 1.1346841e-38
-61.729755 -20.016167 89.847557 4.1480901e-39
-57.324238 -19.933111 89.474747 3.5959967e-39
-53.845131 -20.18437 90.602577 4.3313995e-39
-49.747963 -20.226862 90.79332 5.5310217e-39
-56.328861 -25.020208 112.30945 3.2261282e-39
-50.724243 -24.826252 111.43884 2.67296e-39
-57.99435 -31.604473 141.86456 5.7125263e-39
-56.224037 -34.560287 155.13248 1.2172671e-38
-49.745556 -35.064816 157.39719 4.2366774e-39
-54.347111 -44.896072 201.52724 2.3508773e-38
-43.973888 -43.871048 196.92615 7.4638902e-39
-41.023022 -51.654621 231.86467 9.5822092e-39
-38.829529 -66.260414 297.42639 1.345118e-38
-28.141718 -74.47876 334.3165 2.2308091e-38
-14.300715 -84.278595 378.30551 2.0832245e-38
3.005841 -78.11187 350.6246 2.3509527e-38
19.266005 -78.11187 350.6246 2.350988e-38
39.015343 -85.783569 385.06097 2.3509876e-38
56.36919 -85.024422 381.65335 1.7319114e-38
72.152748 -82.825516 371.78299 2.3508432e-38
81.651329 -75.651649 339.58133 2.3509168e-38
85.900826 -66.720551 299.49185 2.3418047e-38
93.919731 -62.795815 281.87469 2.3509886e-38
101.04765 -59.307159 266.215 2.331429e-38
102.05399 -53.376442 239.59349 7.6457521e-39
110.70499 -52.216087 234.38493 1.0413063e-38
118.98787 -51.105106 229.39803 1.0136473e-38
126.92562 -50.040417 224.6189 1.2071145e-38
137.34229 -50.040417 224.6189 9.1234143e-39
150.90276 -51.105106 229.39803 1.4296459e-38
189.81075 -60.0485 269.54266 1.5955287e-38
203.58315 -60.426163 271.23792 1.8169072e-38
217.52986 -60.808605 272.95462 1.7983596e-38
-220.06013 -44.489822 252.20367 1.2264482e-38
-200.17012 -42.740223 242.28555 9.8695777e-39
-68.168709 -16.396034 92.945747 1.0238336e-38
-63.312569 -16.255898 92.151344 2.9491924e-39
-57.925121 -15.949182 90.412636 3.779316e-39
-55.237679 -16.396034 92.945747 4.6079892e-39
-50.600174 -16.290707 92.348671 5.7157773e-39
-55.74815 -19.607628 111.15162 7.2866581e-39
-50.855652 -19.709223 111.72753 2.948821e-39
-60.171612 -25.96505 147.19054 7.4631531e-39
-55.036205 -26.787886 151.85503 2.3234379e-38
-49.385078 -27.564346 156.25662 5.6152902e-39
-44.904564 -29.37359 166.51285 9.3970907e-39
-43.973888 -34.738628 196.92615 8.0141674e-39
-39.535137 -39.418446 223.45506 1.0227218e-38
-37.286633 -50.382515 285.60812 1.0319058e-38
-25.210289 -52.831665 299.49185 8.2018069e-39
-11.644869 -54.341141 308.04877 1.6221737e-38
2.7798378 -57.201202 324.26187 2.0828623e-38
16.230949 -52.107944 295.38922 1.3634864e-38
30.557472 -53.201118 301.58621 2.3418035e-38
44.543488 -53.201118 301.58621 2.3509517e-38
57.722198 -52.467308 297.42639 1.8521588e-38
74.602295 -54.732086 310.26495 2.1281657e-38
88.990784 -54.732086 310.26495 2.1374612e-38
93.919731 -49.723919 281.87469 2.3509527e-38
94.078842 -43.722755 247.85533 2.3508807e-38
103.20067 -42.740223 242.28555 7.73974e-39
107.20905 -40.04084 226.98331 8.6627865e-39
116.50895 -39.623749 224.6189 8.1092512e-39
126.92562 -39.623749 224.6189 8.0170555e-39
136.63066 -39.418446 223.45506 7.5571564e-39
147.75896 -39.623749 224.6189 6.6373665e-39
169.66324 -42.50145 240.93201 9.1327371e-39
186.03287 -43.722755 247.85533 8.67068e-39
194.1792 -42.981693 243.65439 1.0516397e-38
-206.40771 -29.207083 224.6189 4.7048372e-39
-190.05193 -28.32202 217.81226 3.8736332e-39
-185.57439 -29.207083 224.6189 6.921121e-39
-168.9964 -28.179697 216.71773 1.1615157e-38
-63.858368 -12.08569 92.945747 3.1328592e-39
-59.41996 -12.059698 92.745865 3.4108894e-39
-55.476803 -12.138008 93.348114 3.9636988e-39
-51.258747 -12.164338 93.550606 4.9785752e-39
-51.623585 -13.383675 102.92799 1.0700765e-38
-51.254002 -14.64167 112.60268 2.949893e-39
-48.837345 -15.53396 119.4649 6.451899e-39
-50.583435 -18.14809 139.56902 6.1742219e-39
-45.283329 -18.63043 143.2785 8.8435652e-39
-43.075119 -20.76948 159.72899 8.8439281e-39
-42.611866 -24.813097 190.82668 8.5658993e-39
-39.12965 -28.757742 221.16322 9.8580842e-39
-31.809502 -31.682259 243.65439 5.7128892e-39
-22.409145 -34.615799 266.215 7.0047127e-39
-9.4783812 -32.603252 250.73737 8.2018209e-39
2.1495259 -32.603252 250.73737 9.3078028e-39
13.777433 -32.603252 250.73737 1.0782199e-38
25.553909 -32.793915 252.20367 2.3136759e-38
37.914993 -33.37952 256.70731 1.5202897e-38
51.664928 -34.615799 266.215 1.7424273e-38
64.408188 -34.830807 267.8685 1.8802851e-38
74.51638 -33.781685 259.80017 2.2771972e-38
84.03344 -32.793915 252.20367 1.4844233e-38
91.450943 -31.328266 240.93201 1.2995293e-38
98.233788 -29.98802 230.62476 7.2798548e-39
106.09229 -29.207083 224.6189 7.0032651e-39
116.50895 -29.207083 224.6189 6.4497298e-39
125.61711 -28.905977 222.30324 4.4293321e-39
135.22932 -28.757742 221.16322 7.1012047e-39
144.00873 -28.465786 218.91791 7.6590406e-39
154.94754 -28.611019 220.03484 7.9323905e-39
167.71875 -29.05575 223.45506 8.8561362e-39
179.00896 -29.207083 224.6189 7.9331177e-39
-200.15294 -18.221008 217.81226 6.4576359e-39
-181.7888 -17.428791 208.34216 1.6874629e-38
-171.29944 -17.344999 207.34052 9.3167767e-39
-154.97826 -16.62562 198.74115 9.4104002e-39
-64.134811 -7.8090038 93.348114 5.0660667e-39
-60.859653 -7.9466071 94.993011 3.5030822e-39
-56.704163 -7.9817691 95.413338 2.5818448e-39
-52.279385 -7.9817691 95.413338 3.4112523e-39
-50.656399 -8.4490862 100.9996 6.3651502e-39
-50.463451 -9.2744465 110.86588 2.2761835e-38
-47.39323 -9.6982784 115.93233 5.436308e-39
-46.518696 -10.73738 128.35365 8.2914732e-39
-44.836452 -11.867631 141.86456 8.9350377e-39
-43.396572 -13.46179 160.92101 9.120515e-39
-42.238079 -15.823507 189.15276 8.65989e-39
-37.587593 -17.772215 212.44743 3.6860343e-39
-29.02207 -18.596699 222.30324 4.5150761e-39
-18.907717 -18.790415 224.6189 5.6217782e-39
-8.671711 -19.19021 229.39803 6.3582615e-39
1.9356986 -18.888794 225.79491 5.5295826e-39
12.029028 -18.313501 218.91791 4.8885656e-39
23.120203 -19.088676 228.18428 2.2952745e-38
33.349312 -18.888794 225.79491 1.5021779e-38
42.921635 -18.501331 221.16322 2.3506974e-38
53.45216 -18.596699 222.30324 2.2305936e-38
64.425621 -18.790415 224.6189 1.34573e-38
74.842285 -18.790415 224.6189 1.2899468e-38
84.817192 -18.693056 223.45506 5.8994693e-39
95.179893 -18.693056 223.45506 9.772385e-39
103.92714 -18.406937 220.03484 8.3880101e-39
111.29214 -17.949053 214.56134 9.8645807e-39
117.16211 -17.344999 207.34052 7.2838065e-39
122.64986 -16.780277 200.5899 1.1246061e-38
131.34129 -16.702591 199.66124 9.4993869e-39
128.68526 -15.287117 182.7408 8.0256735e-39
143.22885 -15.963538 190.82668 9.5955131e-39
146.25412 -15.352169 183.51842 9.8703022e-39
-200.15294 -8.119998 217.81226 3.782532e-39
-157.44888 -6.7270279 180.44698 5.1651133e-39
-149.70706 -6.7552924 181.20515 5.1694153e-39
-144.33598 -6.9002562 185.09369 5.718273e-39
-132.34428 -6.7270279 180.44698 8.669601e-39
-64.694939 -3.5103922 94.163383 1.3088869e-38
-61.537376 -3.5807564 96.050842 3.3183238e-39
-56.578991 -3.5491383 95.202713 2.8584303e-39
-52.746166 -3.5887492 96.265244 3.6871119e-39
-50.070099 -3.7216659 99.83062 8.5705894e-39
-47.416142 -3.8834774 104.17108 8.7517325e-39
-46.395477 -4.2309465 113.49165 9.3056251e-39
-45.971416 -4.7287049 126.84361 9.4892975e-39
-44.836452 -5.2886829 141.86456 9.0279592e-39
-42.758389 -5.910881 158.55452 8.9368426e-39
-40.463367 -6.7552924 181.20515 7.5564389e-39
-34.37064 -7.2421603 194.26498 3.3179777e-39
-25.59219 -7.3079982 196.03104 4.8845761e-39
-16.426615 -7.2749305 195.14401 4.1480901e-39
-7.4442081 -7.3413682 196.92615 4.5165153e-39
1.6579301 -7.2096844 193.39384 4.0555371e-39
10.393502 -7.0515776 189.15276 2.1300439e-38
20.04458 -7.3750443 197.82948 1.6683104e-38
28.692427 -7.2421603 194.26498 1.7504908e-38
39.110836 -7.5128956 201.52724 2.3324387e-38
46.293388 -7.1774983 192.53049 2.2956345e-38
53.088921 -6.9002562 185.09369 1.6958234e-38
65.316902 -7.3079982 196.03104 2.2311361e-38
74.407814 -7.3079982 196.03104 1.7140093e-38
85.839806 -7.5128956 201.52724 1.0413413e-38
90.936249 -7.1774983 192.53049 8.8514993e-39
99.864815 -7.1774983 192.53049 6.8221389e-39
106.41798 -7.0207844 188.32677 9.6802034e-39
113.17476 -6.9002562 185.09369 6.083841e-39
113.02677 -6.405417 171.82004 9.4979407e-39
116.35908 -6.1599984 165.23689 7.9259389e-39
124.97961 -6.2075663 166.51285 1.0330929e-38
129.20947 -6.044209 162.13094 9.5015253e-39
-144.73186 1.5086169 165.87242 6.2768222e-39
-138.63924 1.5262272 167.80867 6.3658004e-39
-124.5566 1.4527422 159.72899 6.0892023e-39
-65.896423 0.81716752 89.847557 1.170345e-38
-61.34634 0.81209195 89.289497 2.3234376e-38
-57.563087 0.81716752 89.847557 2.3509879e-38
-53.732246 0.82230693 90.412636 1.4923431e-38
-50.708759 0.8417176 92.546844 7.8333887e-39
-48.71685 0.88342434 97.132492 7.4638817e-39
-47.530949 0.94973463 104.42331 1.0781834e-38
-46.032066 1.0241264 112.60268 1.0780036e-38
-46.518696 1.1673821 128.35365 1.1241733e-38
-44.984428 1.2945228 142.33276 8.6595383e-39
-44.221603 1.4914083 163.98033 9.0290382e-39
-39.147488 1.5944732 175.3123 4.2388522e-39
-31.660919 1.6275536 178.94949 5.5306672e-39
-24.268456 1.6906914 185.89149 3.6856672e-39
-15.126174 1.634335 179.69511 5.5295938e-39
-6.7646542 1.6275536 178.94949 4.3324898e-39
1.4968357 1.5880178 174.60254 8.2014692e-39
9.1849556 1.5203116 167.15825 2.3506958e-38
17.98238 1.614158 177.47665 2.147222e-38
26.540495 1.634335 179.69511 1.4286004e-38
33.613327 1.5752627 173.20012 1.9445711e-38
40.98703 1.5503573 170.46178 1.1058806e-38
49.877899 1.5816145 173.8985 2.277016e-38
57.942413 1.5816145 173.8985 7.8402187e-39
65.741844 1.5752627 173.20012 2.3234379e-38
74.978447 1.6009812 176.02786 1.7969876e-38
84.521652 1.6275536 178.94949 2.0834068e-38
89.478874 1.5689616 172.50731 6.6384707e-39
97.090515 1.5627108 171.82004 6.1778485e-39
103.81779 1.5442536 169.79066 8.3890891e-39
105.46364 1.4581428 160.32278 5.9909111e-39
111.65338 1.4420604 158.55452 5.3441067e-39
116.0205 1.4058796 154.57645 9.6812418e-39
122.31216 1.3958733 153.47626 7.5618367e-39
-125.85379 8.0008039 144.23688 6.9200476e-39
-119.5647 8.0276527 144.7209 5.9048139e-39
-113.23328 8.0546818 145.20818 5.9051782e-39
-66.172142 5.0046873 90.223488 5.2555026e-39
-59.738472 4.8230653 86.949249 7.5549998e-39
-56.503643 4.8921075 88.193924 8.8468162e-39
-53.285408 4.9734731 89.660767 9.5833022e-39
-50.600174 5.1225705 92.348671 1.0413063e-38
-48.067295 5.3160901 95.837395 7.5549956e-39
-47.530949 5.7923498 104.42331 1.0414503e-38
-45.912193 6.2297931 112.30945 1.0871869e-38
-45.702579 6.9948549 126.10184 1.151832e-38
-44.836452 7.8692122 141.86456 9.0279592e-39
-42.291935 8.6990566 156.82483 6.3578985e-39
-36.204067 8.9933853 162.13094 5.2547978e-39
-28.577835 8.9597025 161.5237 5.0689674e-39
-21.008514 8.9262705 160.92101 4.6090682e-39
-14.180788 9.3446894 168.46417 7.7444357e-39
-5.9936824 8.795002 158.55452 1.0506349e-38
1.3493373 8.7308044 157.39719 1.2255887e-38
8.2568588 8.3353329 150.2677 1.2527437e-38
15.495456 8.4831219 152.93201 1.502249e-38
22.194141 8.3353329 150.2677 1.9537555e-38
29.367434 8.3938265 151.3222 2.295021e-38
36.257759 8.3644772 150.79311 2.341769e-38
45.644718 8.8274555 159.13959 2.3508441e-38
51.87624 8.6362467 155.69252 2.0742949e-38
58.672829 8.5743389 154.57645 1.6589488e-38
65.841286 8.5743389 154.57645 2.2492516e-38
73.272369 8.6051817 155.13248 1.05096e-38
81.641312 8.7308044 157.39719 1.3090021e-38
87.660858 8.6051817 155.13248 7.5593368e-39
95.542458 8.6675377 156.25662 1.3553499e-38
100.60184 8.4831219 152.93201 8.8490078e-39
105.45042 8.3063908 149.74593 9.7694998e-39
109.72786 8.1092901 146.19264 8.5727516e-39
115.33463 8.0276527 144.7209 9.7734528e-39
-117.59464 13.725752 134.77133 3.0449655e-39
-113.11201 13.943621 136.91057 4.3349869e-39
-106.42494 13.899495 136.47731 3.6906908e-39
-65.217079 9.0561657 88.921295 3.3183238e-39
-61.729755 9.1505013 89.847557 8.2940039e-39
-57.443413 9.1314774 89.660767 8.75678e-39
-53.507896 9.1696043 90.035133 9.8613283e-39
-50.600174 9.4052258 92.348671 9.7694886e-39
-48.82682 9.9147644 97.351753 9.5829337e-39
-47.416142 10.609277 104.17108 1.1703803e-38
-45.912193 11.438127 112.30945 1.0226864e-38
-46.243439 12.994794 127.59416 1.1519045e-38
-43.827274 14.12296 138.67148 7.7411847e-39
-40.10442 15.145657 148.7132 4.2392039e-39
-34.029263 15.520285 152.39162 5.2526398e-39
-25.865362 14.888951 146.19264 5.3462759e-39
-19.414764 15.145657 148.7132 4.6079906e-39
-12.182153 14.739062 144.7209 1.2168753e-38
-5.4162178 14.592161 143.2785 1.1243545e-38
1.216179 14.448159 141.86456 1.2352424e-38
7.668992 14.214371 139.56902 9.1190927e-39
14.374074 14.448159 141.86456 2.3417333e-38
21.161856 14.592161 143.2785 2.341805e-38
27.352022 14.353727 140.93735 2.304748e-38
34.110916 14.448159 141.86456 9.8559375e-39
40.689865 14.448159 141.86456 1.6497256e-38
47.424816 14.495843 142.33276 2.341805e-38
53.148438 14.260521 140.02217 2.3509886e-38
58.502289 13.988027 137.34659 2.3509158e-38
64.871719 13.988027 137.34659 2.3418036e-38
73.103653 14.353727 140.93735 1.2162633e-38
79.122467 14.260521 140.02217 1.3091782e-38
86.175552 14.353727 140.93735 1.3370578e-38
90.062599 13.943621 136.91057 1.4198163e-38
95.202881 13.768779 135.19382 1.6869323e-38
101.79157 13.812077 135.61896 1.5582903e-38
108.42183 13.855648 136.04678 1.493824e-38
-112.3292 19.081316 128.7368 2.8573485e-39
-106.99785 19.195917 129.50999 2.3970864e-39
-103.47779 19.668432 132.69794 2.7651528e-39
-93.858406 18.968073 127.97279 4.3335463e-39
-63.177574 13.629511 91.954857 7.927385e-39
-58.04681 13.429077 90.602577 8.755701e-39
-54.532516 13.600512 91.759209 1.096659e-38
-51.482098 13.92645 93.958229 1.0598533e-38
-49.271713 14.560912 98.238785 1.1058067e-38
-47.188179 15.365963 103.67026 1.2255531e-38
-46.273705 16.777534 113.19377 9.3056265e-39
-45.836605 18.745573 126.47163 1.0414506e-38
-42.862522 20.101385 135.61896 9.2177707e-39
-36.688587 20.164797 136.04678 7.0047099e-39
-30.475574 20.228609 136.47731 5.714334e-39
-24.07029 20.164797 136.04678 4.6079892e-39
-17.649786 20.038372 135.19382 9.4007397e-39
-11.309289 19.913523 134.35149 1.2072235e-38
-5.0473113 19.790218 133.51959 8.9372294e-39
1.1136098 19.253736 129.90009 1.1703098e-38
7.0527334 19.024525 128.35365 8.2914956e-39
13.241571 19.370426 130.68736 2.323365e-38
19.1859 19.253736 129.90009 1.6127786e-38
25.28616 19.311905 130.29253 1.6867144e-38
31.328455 19.311905 130.29253 1.4837752e-38
36.705399 18.968073 127.97279 1.0781142e-38
44.078892 19.608099 132.29088 2.341805e-38
48.719402 19.024525 128.35365 2.3508809e-38
55.164322 19.195917 129.50999 1.945294e-38
60.624165 19.024525 128.35365 1.0878019e-38
66.975204 19.138445 129.12224 2.350593e-38
72.313705 18.968073 127.97279 1.8065676e-38
78.016922 18.911955 127.59416 2.18428e-38
82.710548 18.636271 125.73419 9.9524883e-39
88.541458 18.636271 125.73419 1.3922293e-38
94.37236 18.636271 125.73419 1.2816668e-38
96.816109 18.006311 121.48402 1.475494e-38
-106.60136 23.774054 122.17232 3.4105222e-39
-101.8008 23.977831 123.21951 3.8711459e-39
-95.000801 23.706894 121.82719 3.3186909e-39
-89.351082 23.706894 121.82719 4.1488146e-39
-65.84507 18.649424 95.837395 3.0424698e-39
-59.548023 18.086725 92.945747 9.5861847e-39
-56.578991 18.525917 95.202713 1.0137198e-38
-52.04908 18.485111 94.993011 1.1058432e-38
-49.04826 19.030024 97.793259 1.161124e-38
-47.188179 20.173655 103.67026 1.0874763e-38
-46.152569 21.969215 112.89745 1.1150625e-38
-44.404209 23.841593 122.51939 3.1335836e-39
-39.73843 24.467175 125.73419 4.0544637e-39
-34.613934 24.976906 128.35365 4.6094326e-39
-28.576504 24.902792 127.97279 3.4105194e-39
-22.442005 24.68306 126.84361 8.5735027e-39
-16.608501 24.755873 127.21778 1.382864e-38
-10.342683 23.909517 122.86845 1.3181817e-38
-4.6053152 23.706894 121.82719 1.0506363e-38
1.0269957 23.311779 119.79675 7.2769724e-39
6.5461836 23.182985 119.13488 9.2138022e-39
12.037792 23.11912 118.80669 2.3509524e-38
17.742949 23.376715 120.13044 2.3234372e-38
23.31398 23.376715 120.13044 2.341805e-38
28.410189 22.992439 118.15569 2.3417676e-38
33.797047 22.929619 117.83286 2.350988e-38
40.027073 23.376715 120.13044 1.1708154e-38
46.373142 23.774054 122.17232 2.0560344e-38
51.600334 23.573709 121.14278 1.7053693e-38
57.37949 23.640114 121.48402 2.341805e-38
61.624569 23.11912 118.80669 2.3509874e-38
67.319664 23.182985 119.13488 2.1006537e-38
72.844528 23.182985 119.13488 1.336478e-38
78.153496 23.11912 118.80669 1.2629759e-38
81.859077 22.620594 116.24482 1.4013789e-38
87.722816 22.7432 116.87487 1.5674361e-38
93.142868 22.7432 116.87487 1.6043882e-38
-98.508591 27.204819 112.89745 2.9495469e-39
-97.085236 28.316732 117.5118 2.3963731e-39
-88.734253 27.42016 113.7911 2.8569939e-39
-81.311783 26.715271 110.86588 3.0417425e-39
-70.716667 24.802485 102.92799 2.8587834e-39
-61.537376 23.145302 96.050842 9.2159602e-39
-56.956184 23.093868 95.837395 8.7542632e-39
-52.864166 23.248861 96.480598 1.0229748e-38
-49.497211 23.78087 98.688393 1.1334653e-38
-47.188179 24.981348 103.67026 9.5843812e-39
-46.395477 27.348001 113.49165 1.1800339e-38
-42.244003 28.087137 116.559 6.7284901e-39
-37.038811 28.239784 117.19247 5.9920027e-39
-31.863787 28.471891 118.15569 3.6874763e-39
-25.957632 28.011431 116.24482 9.0344809e-39
-20.734461 28.239784 117.19247 1.5300889e-38
-15.425429 28.471891 118.15569 1.5579292e-38
-9.5282984 27.276222 113.19377 1.3274013e-38
-4.2455249 27.063128 112.30945 1.3365503e-38
0.93363243 26.243032 108.90613 7.6464793e-39
6.0918212 26.715271 110.86588 9.6744329e-39
11.379476 27.063128 112.30945 1.5394902e-38
16.674656 27.204819 112.89745 1.4934273e-38
22.200846 27.565624 114.39477 1.317933e-38
27.652582 27.712641 115.00488 2.350988e-38
31.395226 26.376245 109.45895 2.3507723e-38
37.323944 26.992832 112.01774 9.9560602e-39
42.408596 26.922903 111.72753 2.3507369e-38
47.713554 26.992832 112.01774 2.3509521e-38
52.499275 26.784126 111.15162 2.0650029e-38
56.064457 26.045715 108.08729 1.410734e-38
62.808556 26.784126 111.15162 1.5857295e-38
67.441734 26.578621 110.29879 6.9154093e-39
73.30677 26.853334 111.43884 1.133576e-38
78.071259 26.715271 110.86588 1.189252e-38
81.127113 26.045715 108.08729 1.0691104e-38
84.863503 25.659853 106.48599 1.4201409e-38
-93.375389 30.749977 107.01446 3.225052e-39
-78.209961 28.819164 100.29495 3.6871119e-39
-74.249489 29.089767 101.23669 3.9633415e-39
-69.554649 29.089767 101.23669 3.0421041e-39
-63.082836 28.292788 98.463074 7.742991e-39
-57.596138 27.847733 96.914223 8.9386545e-39
-54.073872 28.357531 98.688393 1.0228669e-38
-50.070099 28.685741 99.83062 9.9531638e-39
-47.416142 29.932949 104.17108 8.8478966e-39
-44.186169 31.058247 108.08729 8.6624193e-39
-40.180672 31.856659 110.86588 1.096769e-38
-34.860058 31.69371 110.29879 5.0686044e-39
-30.208525 32.187637 112.01774 4.9789312e-39
-24.693029 31.774977 110.58161 7.648287e-39
-19.665674 31.938765 111.15162 1.3087489e-38
-14.43662 31.774977 110.58161 1.4844972e-38
-8.7900286 30.005424 104.42331 1.8529166e-38
-4.0056057 30.447765 105.96272 1.5851902e-38
0.88449389 29.646509 103.17423 9.3092489e-39
5.710165 29.860821 103.92007 1.5761515e-38
10.580432 30.005424 104.42331 2.3325847e-38
15.650414 30.447765 105.96272 2.3509527e-38
20.364279 30.151438 104.93146 9.4925597e-39
25.04763 29.932949 104.17108 1.2441738e-38
29.806551 29.860821 103.92007 1.235207e-38
34.295273 29.575754 102.92799 9.7702256e-39
39.732327 30.078255 104.67677 2.2591531e-38
44.586697 30.078255 104.67677 2.341805e-38
48.155365 29.296078 101.95467 2.3508439e-38
53.388351 29.575754 102.92799 1.0877665e-38
58.161621 29.575754 102.92799 1.5303824e-38
63.388748 29.78904 103.67026 9.9546295e-39
70.048691 30.598125 106.48599 1.0972756e-38
71.45816 29.158213 101.47489 9.6791244e-39
76.887695 29.435251 102.43902 1.5856246e-38
78.829628 28.422571 98.914742 1.2633007e-38
-80.068047 32.342113 96.914223 4.423598e-39
-76.25914 32.635468 97.793259 4.3324785e-39
-73.218246 33.315372 99.83062 3.6874735e-39
-67.649048 32.858997 98.463074 4.3328429e-39
-63.372208 33.009727 98.914742 3.6871119e-39
-58.383331 32.784149 98.238785 7.0061518e-39
-53.101757 32.342113 96.914223 7.4674831e-39
-50.186268 33.39267 100.06225 6.6370176e-39
-46.407288 34.024208 101.95467 6.6362945e-39
-42.896065 35.017616 104.93146 8.0203177e-39
-37.937576 34.932625 104.67677 1.2446809e-38
-32.844051 34.680099 103.92007 9.5865546e-39
-27.890364 34.513767 103.42165 1.050563e-38
-23.149715 34.596733 103.67026 1.1893624e-38
-18.254263 34.431198 103.17423 1.7884544e-38
-13.437427 34.349022 102.92799 1.6501953e-38
-8.194767 32.488129 97.351753 1.3090709e-38
-3.7825561 33.39267 100.06225 9.5843896e-39
0.81435776 31.700972 94.993011 6.4508102e-39
5.3252101 32.342113 96.914223 8.2011035e-39
9.886241 32.56163 97.572006 9.7705956e-39
14.509609 32.784149 98.238785 1.3916522e-38
19.152674 32.934189 98.688393 2.3234012e-38
23.407944 32.488129 97.351753 2.3509886e-38
28.177036 32.784149 98.238785 2.3124519e-38
31.791412 31.84124 95.413338 1.4925604e-38
36.785885 32.342113 96.914223 7.8355636e-39
41.560452 32.56163 97.572006 9.5901728e-39
46.085339 32.56163 97.572006 1.4479069e-38
48.210602 31.017759 92.945747 1.1344684e-38
54.763412 32.342113 96.914223 1.6509179e-38
59.525326 32.488129 97.351753 1.2447503e-38
63.609234 32.2696 96.696922 7.9259585e-39
68.400269 32.414955 97.132492 8.0213687e-39
72.740944 32.342113 96.914223 8.2997899e-39
75.537842 31.631298 94.784241 1.8167599e-38
-79.002846 36.346432 95.624893 5.9930831e-39
-72.950722 35.558006 93.550606 3.964059e-39
-68.168709 35.328106 92.945747 3.7796677e-39
-63.858368 35.328106 92.945747 5.2562551e-39
-61.264484 36.346432 95.624893 8.297255e-39
-56.704163 36.266018 95.413338 6.083841e-39
-52.746166 36.589825 96.265244 6.7302978e-39
-48.281879 36.589825 96.265244 5.99273e-39
-45.023582 37.596882 98.914742 7.6522513e-39
-40.810837 37.945004 99.83062 9.771683e-39
-36.097649 37.857368 99.600067 1.1801052e-38
-31.406179 37.770142 99.370575 9.0330249e-39
-26.553154 37.425209 98.463074 1.1242106e-38
-21.641083 36.836494 96.914223 1.8161499e-38
-16.918585 36.346432 95.624893 1.7426115e-38
-12.374246 36.026901 94.784241 1.539706e-38
-7.8747973 35.558006 93.550606 1.3276221e-38
-3.4394126 34.582787 90.984871 1.2904892e-38
0.76705068 34.008797 89.474747 7.6500905e-39
5.0635009 35.026157 92.151344 1.1431193e-38
9.4174967 35.328106 92.945747 1.7605072e-38
13.78727 35.481041 93.348114 1.5579653e-38
18.038187 35.328106 92.945747 9.8642303e-39
22.396801 35.404408 93.1465 1.2906702e-38
26.31855 34.87711 91.759209 1.2446427e-38
30.252039 34.509979 90.79332 7.4624538e-39
35.279568 35.328106 92.945747 1.1427216e-38
39.419998 35.176483 92.546844 7.9306515e-39
42.793526 34.437481 90.602577 1.4928876e-38
47.595146 34.87711 91.759209 1.1062411e-38
51.089558 34.365284 90.412636 1.3832562e-38
54.936916 34.150501 89.847557 1.3739354e-38
59.978264 34.655899 91.177223 8.2086509e-39
62.877266 33.938385 89.289497 6.1778569e-39
66.879585 33.868267 89.105019 6.3626055e-39
71.603584 34.150501 89.847557 7.8355636e-39
-73.616287 38.000496 89.105019 4.8853006e-39
-70.209358 38.397163 90.035133 4.1477356e-39
-66.033989 38.397163 90.035133 4.5165181e-39
-61.729755 38.317169 89.847557 4.979657e-39
-57.683262 38.397163 90.035133 7.2813108e-39
-54.648788 39.215866 91.954857 5.8083275e-39
-50.708759 39.468327 92.546844 5.6246747e-39
-46.516735 39.553207 92.745865 1.1158556e-38
-42.581955 39.8964 93.550606 1.0050805e-38
-37.996296 39.638451 92.945747 1.1432995e-38
-33.831779 39.810043 93.348114 1.1335405e-38
-29.439054 39.724064 93.1465 1.161414e-38
-24.588333 38.884232 91.177223 1.5207236e-38
-20.621588 39.383812 92.348671 1.6871095e-38
-16.030005 38.63916 90.602577 1.3828279e-38
-11.584942 37.844116 88.738327 1.8805413e-38
-7.5005817 38.000496 89.105019 1.4748769e-38
-3.2868581 37.081131 86.949249 7.1880193e-39
0.72210634 35.922344 84.232086 8.0188758e-39
4.8263106 37.45874 87.834679 7.2809436e-39
8.9177933 37.535187 88.013931 2.1013391e-38
12.842175 37.081131 86.949249 2.3501605e-38
17.081059 37.535187 88.013931 2.3508427e-38
20.948927 37.15604 87.124908 9.4028977e-39
25.244324 37.535187 88.013931 7.6529758e-39
28.739437 36.784481 86.253654 8.1074533e-39
31.359615 35.234177 82.618446 9.39999e-39
36.961205 37.006519 86.7743 9.1274038e-39
41.067982 37.081131 86.949249 1.7693991e-38
44.121735 36.276608 85.062775 1.0971269e-38
48.739437 36.784481 86.253654 7.2863176e-39
53.164757 37.081131 86.949249 1.5676189e-38
57.897385 37.535187 88.013931 1.0691103e-38
61.72707 37.382603 87.656151 1.2357111e-38
65.261528 37.081131 86.949249 9.2228168e-39
68.193886 36.492542 85.569099 5.3480836e-39
-71.403374 40.866215 86.426506 5.2547978e-39
-67.530685 40.948277 86.60006 4.6097927e-39
-63.00853 40.621994 85.910019 6.1760394e-39
-59.618275 41.030666 86.7743 5.9905748e-39
-55.706215 41.113388 86.949249 8.1085435e-39
-51.673958 41.113388 86.949249 6.8210375e-39
-49.025482 42.307552 89.474747 8.5706035e-39
-44.690666 42.132729 89.105019 1.0599632e-38
-40.89642 42.483833 89.847557 7.6518968e-39
-35.906887 41.532059 87.834679 1.1986539e-38
-31.833569 41.532059 87.834679 1.4015933e-38
-27.535923 41.196445 87.124908 1.4289974e-38
-23.448149 41.113388 86.949249 1.5394898e-38
-19.107702 40.460796 85.569099 1.5397763e-38
-15.079608 40.300873 85.230888 1.7240633e-38
-10.744812 38.916489 82.303108 1.7050092e-38
-7.008266 39.36726 83.256424 1.5484208e-38
-3.1231449 39.065594 82.618446 1.0969133e-38
0.68466377 37.763409 79.864494 9.3092601e-39
4.5223637 38.916489 82.303108 1.9911044e-38
8.3711081 39.065594 82.618446 2.3415539e-38
12.296754 39.36726 83.256424 2.3509883e-38
16.220385 39.519848 83.579124 1.2167682e-38
19.865362 39.065594 82.618446 1.1802869e-38
23.833755 39.291409 83.096008 1.2721202e-38
27.163929 38.54866 81.525192 1.5300153e-38
30.370535 37.833469 80.012665 1.2352761e-38
35.326382 39.215847 82.936211 1.1983285e-38
39.399841 39.443405 83.417465 9.4929353e-39
42.366894 38.62167 81.679596 8.9408153e-39
46.15477 38.62167 81.679596 1.2998533e-38
50.516705 39.065594 82.618446 8.7568164e-39
53.73053 38.62167 81.679596 1.0874063e-38
57.73711 38.76852 81.990166 5.8101562e-39
61.074944 38.475925 81.371376 5.5335651e-39
65.591064 38.916489 82.303108 5.7172361e-39
-66.848557 42.011707 80.913376 4.6097955e-39
-63.573311 42.329376 81.525192 6.6435168e-39
-60.248158 42.651886 82.146339 6.0841983e-39
-57.201317 43.228264 83.256424 4.0562588e-39
-53.443485 43.311878 83.417465 7.5596885e-39
-49.961563 43.649593 84.067894 8.8489896e-39
-46.700161 44.253441 85.230888 8.206867e-39
-42.495644 43.992615 84.728539 5.8079842e-39
-38.490749 43.906353 84.562408 1.2908846e-38
-34.56918 43.906353 84.562408 1.475169e-38
-30.058235 43.062 82.936211 1.4655519e-38
-25.863913 42.490021 81.834587 1.3644616e-38
-22.237633 42.814991 82.460472 1.6043166e-38
-18.591278 43.228264 83.256424 1.6501626e-38
-14.342635 42.090679 81.065468 1.3459511e-38
-10.387974 41.314098 79.569794 1.1891464e-38
-6.6367126 40.936455 78.842461 1.4288906e-38
-2.9534087 40.565655 78.128311 7.6468395e-39
0.65669346 39.773075 76.60183 7.2766206e-39
4.3007593 40.639275 78.270103 1.7698712e-38
8.0325708 41.162209 79.27726 1.769942e-38
11.623574 40.861752 78.698593 1.5944096e-38
15.357282 41.086681 79.131798 1.2997073e-38
19.027006 41.086681 79.131798 1.5390912e-38
22.864544 41.390465 79.716873 2.2950927e-38
26.079344 40.639275 78.270103 2.1556124e-38
29.024324 39.702557 76.466003 2.3509517e-38
33.521385 40.861752 78.698593 1.2078718e-38
37.035854 40.713165 78.412415 1.3832981e-38
41.045357 41.086681 79.131798 1.2540797e-38
44.71508 41.086681 79.131798 1.4567298e-38
48.384804 41.086681 79.131798 6.6370288e-39
52.150219 41.162209 79.27726 6.6381022e-39
55.724255 41.086681 79.131798 8.2065153e-39
58.854034 40.713165 78.412415 6.5469911e-39
61.81604 40.273815 77.566238 5.5335651e-39
-59.522625 43.172108 76.330666 4.423598e-39
-56.583691 43.635494 77.149963 6.6355756e-39
-54.267918 44.674435 78.986862 5.7096635e-39
-52.330078 46.197426 81.679596 3.8729549e-39
-48.177223 45.850079 81.065468 5.8998042e-39
-45.010059 46.461411 82.146339 9.5876407e-39
-41.044178 46.285088 81.834587 6.7299405e-39
-37.108284 46.110096 81.525192 1.0970939e-38
-32.953796 45.592976 80.610893 7.8359237e-39
-29.10667 45.423168 80.310669 1.4202131e-38
-24.827471 44.430313 78.555244 1.5949495e-38
-21.145967 44.349529 78.412415 1.6227186e-38
-17.044746 43.172108 76.330666 1.7518277e-38
-13.528869 43.248653 76.466003 1.364606e-38
-9.982769 43.248653 76.466003 1.7515375e-38
-6.3466463 42.64378 75.396553 1.5951325e-38
-2.8303499 42.347641 74.872963 1.0232294e-38
0.62770534 41.412971 73.220421 7.1865872e-39
4.1284294 42.495193 75.13385 1.0690751e-38
7.7067347 43.019825 76.061424 6.7295901e-39
11.116437 42.569355 75.264969 1.1980057e-38
14.556032 42.421288 75.003181 1.2167702e-38
18.065712 42.495193 75.13385 1.161164e-38
21.290394 41.983204 74.228622 2.3509879e-38
24.904192 42.274246 74.743202 2.350952e-38
28.175076 41.983204 74.228622 2.1833046e-38
30.770048 40.858025 72.239243 8.5698888e-39
35.180862 42.128223 74.485023 1.3732131e-38
38.568481 42.055588 74.356598 1.6315059e-38
41.944439 41.983204 74.228622 2.0654376e-38
45.70142 42.274246 74.743202 8.7564268e-39
49.252983 42.347641 74.872963 6.4533536e-39
53.001255 42.569355 75.264969 7.0079553e-39
57.39312 43.248653 76.466003 8.4823861e-39
59.87756 42.495193 75.13385 5.4406436e-39
-61.537621 45.582455 74.485023 4.2410158e-39
-58.083389 45.582455 74.485023 5.3466445e-39
-55.883892 46.629402 76.195808 3.5949107e-39
-52.442978 46.711929 76.330666 5.5321035e-39
-48.389286 46.221088 75.528595 7.1916445e-39
-45.686779 47.044994 76.874916 1.1063135e-38
-42.272419 47.21331 77.149963 9.5847568e-39
-37.881405 46.221088 75.528595 4.9785752e-39
-35.054073 47.129002 77.012192 7.4678432e-39
-31.426527 47.044994 76.874916 1.2626508e-38
-27.762489 46.877869 76.60183 1.5584326e-38
-23.829165 46.140282 75.396553 1.7426803e-38
-19.846897 45.037952 73.595268 1.5673645e-38
-16.378031 44.884762 73.344948 1.5397423e-38
-12.867254 44.50631 72.726524 1.5765842e-38
-9.4467812 44.282284 72.360451 1.7700521e-38
-6.0504694 43.987068 71.878044 1.5026845e-38
-2.6126308 42.295258 69.11351 9.8627884e-39
0.60709101 43.337013 70.815811 8.1088938e-39
3.9693778 44.208107 72.239243 7.3724162e-39
7.3317423 44.282284 72.360451 6.5462779e-39
10.669545 44.208107 72.239243 8.2036188e-39
13.72085 43.265968 70.699715 1.0600351e-38
17.14003 43.623539 71.284012 1.8350934e-38
20.344933 43.408291 70.932281 1.7702334e-38
23.790926 43.695763 71.402031 9.8613423e-39
26.92388 43.408291 70.932281 2.0641372e-38
28.974319 41.628139 68.023392 1.1244652e-38
33.392982 43.265968 70.699715 1.4014121e-38
36.852913 43.479805 71.049141 1.7241707e-38
40.280529 43.623539 71.284012 1.6137185e-38
43.442699 43.479805 71.049141 1.6505579e-38
47.204193 43.913879 71.758446 1.0324469e-38
50.44804 43.840931 71.639252 6.6381022e-39
53.327377 43.479805 71.049141 9.3125083e-39
57.570721 44.208107 72.239243 7.5607913e-39
-56.521484 47.718052 72.482063 6.2689497e-39
-52.982048 47.558193 72.239243 6.174952e-39
-50.563622 48.450924 73.595268 9.6819971e-39
-46.830986 48.122444 73.096321 9.4000166e-39
-43.663174 48.368382 73.469894 8.0217611e-39
-40.532215 48.700241 73.973976 5.6217782e-39
-37.358002 49.036686 74.485023 9.2195658e-39
-33.671154 48.700241 73.973976 1.3183262e-38
-29.932568 48.204144 73.220421 1.7149137e-38
-26.09396 47.399403 71.998047 1.6684898e-38
-22.831293 47.558193 72.239243 1.4015919e-38
-19.128754 46.697765 70.932281 1.5398151e-38
-15.710085 46.316868 70.353714 2.0655452e-38
-12.228016 45.500385 69.11351 6.728137e-39
-9.0084505 45.427586 69.002922 1.3730734e-38
-5.716979 44.712189 67.916267 1.6230437e-38
-2.4851854 43.280857 65.742119 9.2123589e-39
0.58685464 45.067051 68.455284 6.7256133e-39
3.7794554 45.282681 68.782822 8.8511798e-39
6.9915495 45.427586 69.002922 8.7560751e-39
10.15904 45.282681 68.782822 1.0784776e-38
13.348833 45.282681 68.782822 1.2538991e-38
16.591549 45.427586 69.002922 1.8900138e-38
19.728418 45.282681 68.782822 2.2956346e-38
22.809078 45.067051 68.455284 1.2443544e-38
25.983681 45.067051 68.455284 7.1891179e-39
27.917505 43.149303 65.54229 5.2544348e-39
31.827686 44.362877 67.385666 1.6045658e-38
35.117298 44.571808 67.703026 1.733426e-38
38.077686 44.362877 67.385666 1.5859508e-38
41.138409 44.293667 67.28054 1.53949e-38
45.391552 45.427586 69.002922 1.5211578e-38
48.359425 45.210575 68.673294 8.1092736e-39
51.626347 45.282681 68.782822 6.733546e-39
54.903706 45.355019 68.8927 5.9009099e-39
-55.934509 47.711525 67.703026 5.0682485e-39
-55.222137 49.905159 70.815811 6.1778205e-39
-50.77092 48.783695 69.224442 9.4007004e-39
-48.179321 49.418278 70.124924 5.4388415e-39
-45.444542 49.98724 70.932281 1.0696536e-38
-42.224518 50.069592 71.049141 1.0875142e-38
-38.548584 49.579514 70.353714 1.1247515e-38
-35.517704 49.905159 70.815811 9.8711163e-39
-31.919157 49.418278 70.124924 1.2169122e-38
-28.390148 48.940807 69.447388 1.4938249e-38
-25.12907 48.862125 69.335739 1.5120487e-38
-21.704271 48.395287 68.673294 1.6504512e-38
-18.344294 47.93729 68.023392 1.71553e-38
-15.023841 47.413792 67.28054 1.9546575e-38
-11.86669 47.266315 67.071274 1.4475815e-38
-8.59585 46.400368 65.842484 1.6677306e-38
-5.5255427 46.259117 65.642052 2.1832662e-38
-2.4260142 45.226551 64.176826 2.1562606e-38
0.56273735 46.259117 65.642052 6.0816774e-39
3.6289716 46.542484 66.044144 8.2961984e-39
6.6611562 46.329636 65.742119 1.9077308e-38
9.6510887 46.048851 65.343681 2.350952e-38
12.700635 46.118729 65.442833 1.6038101e-38
15.735537 46.118729 65.442833 1.4934641e-38
18.573151 45.633995 64.754997 1.8350934e-38
21.543806 45.565578 64.657913 8.8511686e-39
24.877993 46.188816 65.54229 9.2159729e-39
26.895636 44.498158 63.143234 5.9887629e-39
29.224848 43.604362 61.874931 8.3861996e-39
33.996532 46.188816 65.54229 1.622538e-38
36.427082 45.429359 64.464615 1.0507824e-38
40.014748 46.118729 65.442833 1.2082016e-38
42.533314 45.565578 64.657913 1.6411924e-38
45.600178 45.633995 64.754997 1.4660212e-38
49.570778 46.542484 66.044144 1.4016296e-38
52.392864 46.329636 65.742119 1.1155708e-38
-52.547318 50.612877 67.385666 8.6707332e-39
-49.268353 50.455204 67.175743 7.7458889e-39
-46.22509 50.533916 67.28054 9.866408e-39
-43.172318 50.612877 67.385666 9.770227e-39
-40.81255 51.580002 68.673294 7.9299172e-39
-37.038059 50.771538 67.596909 6.7281258e-39
-33.797318 50.612877 67.385666 9.5804254e-39
-30.246967 49.911003 66.451202 1.7709516e-38
-27.333771 50.220528 66.863297 1.7053343e-38
-23.899513 49.529419 65.943161 1.429323e-38
-20.714714 49.228329 65.54229 1.4934655e-38
-17.568401 48.930878 65.146263 1.2906688e-38
-14.395041 48.418896 64.464615 1.8348386e-38
-11.337714 48.131115 64.081467 1.6044587e-38
-8.3411579 47.988506 63.891598 2.3413723e-38
-5.3861747 48.059704 63.986393 2.341805e-38
-2.3457289 46.60754 62.05299 1.8155725e-38
0.53973496 47.287945 62.958874 8.478412e-39
3.4645007 47.357079 63.050919 1.2167665e-38
6.4072118 47.495956 63.235817 2.3142544e-38
9.3397636 47.495956 63.235817 2.350701e-38
12.236431 47.357079 63.050919 2.3131364e-38
15.160407 47.357079 63.050919 2.3418026e-38
18.271372 47.846737 63.702847 1.7611174e-38
20.947111 47.219009 62.867096 1.0326338e-38
23.72423 46.945278 62.502647 8.6649725e-39
26.43125 46.60754 62.05299 5.6199776e-39
28.291277 44.989223 59.898373 9.4936514e-39
31.911154 46.208618 61.521866 1.3088931e-38
35.114868 46.674698 62.142403 8.0206793e-39
38.552219 47.357079 63.050919 9.1263248e-39
41.235058 47.081745 62.684341 1.5771247e-38
44.142033 47.081745 62.684341 1.5952038e-38
47.255066 47.287945 62.958874 1.5123699e-38
50.918102 47.988506 63.891598 1.0604692e-38
-51.422451 52.587524 65.943161 6.2693196e-39
-48.736954 52.992668 66.451202 7.466051e-39
-46.08131 53.487156 67.071274 4.4254014e-39
-43.172318 53.737877 67.385666 5.8079842e-39
-39.922558 53.570469 67.175743 5.2530041e-39
-36.692986 53.404102 66.967125 1.411136e-38
-33.175278 52.748837 66.145439 1.4564763e-38
-29.969896 52.50724 65.842484 1.3091431e-38
-26.353188 51.408432 64.464615 1.3090371e-38
-23.682245 52.109455 65.343681 1.6781446e-38
-20.465889 51.640003 64.754997 1.3831198e-38
-17.003336 50.281055 63.050919 1.6041e-38
-14.267084 50.951469 63.891598 1.5401025e-38
-11.090526 49.988724 62.684341 1.5763312e-38
-8.1480198 49.771694 62.412197 2.3508079e-38
-5.3308101 50.502556 63.328674 2.3509521e-38
-2.2769296 48.033855 60.233002 1.6498022e-38
0.52816921 49.131775 61.609753 9.2159729e-39
3.4294045 49.771694 62.412197 1.0324505e-38
6.4640808 50.876095 63.797081 2.341805e-38
