# .PCD v0.7 - Point Cloud Data file format
VERSION 0.7
FIELDS x y z rgb
SIZE 4 4 4 4
TYPE F F F F
COUNT 1 1 1 1
WIDTH 1085
HEIGHT 1
VIEWPOINT 0 0 0 1 0 0 0
POINTS 1085
DATA ascii
-32.328217 45.865936 107.5482 7.741898e-39
-30.974682 46.328064 108.63181 8.7567758e-39
-29.518482 46.680813 109.45895 1.0877292e-38
-27.755987 46.562634 109.18185 1.5120097e-38
-26.134386 46.680813 109.45895 1.3828654e-38
-24.948917 47.648293 111.72753 1.290705e-38
-22.983629 47.159592 110.58161 1.7149142e-38
-20.846603 46.211658 108.35886 1.6502683e-38
-19.268389 46.445053 108.90613 1.6778565e-38
-17.496521 46.211658 108.35886 1.6224658e-38
-15.861331 46.328064 108.63181 1.3000688e-38
-13.732394 44.859123 105.18739 1.7423923e-38
-12.316663 45.638313 107.01446 1.7701575e-38
-10.557612 45.189781 105.96272 1.6870763e-38
-8.7476664 44.318653 103.92007 1.2998176e-38
-7.1932402 44.641361 104.67677 1.4473677e-38
-5.629775 45.079021 105.70301 1.3736106e-38
-4.0056057 45.189781 105.96272 1.207369e-38
-2.3275723 44.425701 104.17108 9.1226954e-39
-0.70701963 43.79105 102.68292 6.9100003e-39
0.85981029 42.772652 100.29495 1.2073686e-38
2.455889 43.583508 102.19627 5.8043688e-39
4.0742865 44.000576 103.17423 7.9252242e-39
5.6964388 44.212116 103.67026 1.4287827e-38
7.2990026 44.212116 103.67026 1.7606514e-38
8.9445696 44.425701 104.17108 1.6777846e-38
10.606112 44.641361 104.67677 1.6777463e-38
12.194637 44.533272 104.42331 1.4843536e-38
13.742293 44.318653 103.92007 1.5577494e-38
15.460482 44.641361 104.67677 1.6223582e-38
17.161915 44.859123 105.18739 1.5118292e-38
18.696728 44.641361 104.67677 1.7510333e-38
20.820196 45.751842 107.28067 1.7423206e-38
22.093851 44.968803 105.44456 1.5484226e-38
23.494072 44.533272 104.42331 1.4749532e-38
25.230459 44.749977 104.93146 1.6041349e-38
26.402836 44.000576 103.17423 1.262829e-38
27.930912 43.895561 102.92799 1.0692549e-38
29.592628 44.000576 103.17423 1.0691809e-38
30.818878 43.480476 101.95467 8.2028817e-39
32.39492 43.480476 101.95467 9.4932898e-39
33.970966 43.480476 101.95467 1.3827554e-38
35.972214 44.000576 103.17423 1.6130649e-38
37.747723 44.212116 103.67026 1.6960762e-38
39.25592 44.106094 103.42165 1.5025036e-38
40.756905 44.000576 103.17423 1.5025746e-38
42.351799 44.000576 103.17423 1.6594511e-38
43.633537 43.687035 102.43902 1.5949153e-38
45.109917 43.583508 102.19627 1.6128474e-38
47.13649 44.000576 103.17423 1.5577476e-38
48.499332 43.79105 102.68292 1.5675817e-38
50.326283 44.000576 103.17423 1.6775311e-38
51.551193 43.687035 102.43902 1.7147333e-38
52.3881 43.073162 100.9996 1.4657684e-38
54.076023 43.174274 101.23669 1.5026479e-38
55.903423 43.377926 101.71422 1.6501245e-38
58.300762 44.000576 103.17423 1.6316502e-38
59.187672 43.480476 101.95467 1.6040972e-38
60.907707 43.583508 102.19627 1.5761885e-38
63.085453 44.000576 103.17423 1.7700493e-38
62.875317 42.772652 100.29495 1.6042428e-38
64.575882 42.872356 100.52874 1.6407236e-38
66.439621 43.073162 100.9996 1.6680943e-38
68.16053 43.174274 101.23669 1.3180758e-38
68.440216 42.378433 99.370575 1.3278718e-38
69.179314 41.895763 98.238785 1.6595599e-38
72.010178 42.673412 100.06225 1.4381116e-38
73.386696 42.574631 99.83062 1.5579656e-38
74.756859 42.476307 99.600067 1.3090371e-38
76.473114 42.574631 99.83062 1.4475455e-38
78.197334 42.673412 100.06225 1.429178e-38
79.375793 42.476307 99.600067 1.14265e-38
81.102745 42.574631 99.83062 1.1430111e-38
-91.557861 46.372036 104.93146 4.4250413e-39
-89.935806 46.372036 104.93146 5.5313889e-39
-89.843933 47.175514 106.74957 5.5313889e-39
-87.976006 47.059032 106.48599 5.3477137e-39
-84.04715 45.814682 103.67026 5.8994497e-39
-82.050117 45.595474 103.17423 5.9001686e-39
-82.629684 46.827782 105.96272 5.7150613e-39
-78.672112 45.486652 102.92799 5.8983735e-39
-75.814438 44.73922 101.23669 7.0068791e-39
-76.034332 45.814682 103.67026 6.8217746e-39
-74.611122 45.925079 103.92007 7.9266662e-39
-73.0047 45.925079 103.92007 7.1912759e-39
-71.744026 46.147476 104.42331 7.0994292e-39
-70.98925 46.713009 105.70301 6.4533424e-39
-68.849022 46.372036 104.93146 6.8214088e-39
-68.732048 47.410217 107.28067 6.5451849e-39
-66.741623 47.175514 106.74957 6.8217718e-39
-64.295715 46.598797 105.44456 6.8221235e-39
-62.209423 46.259483 104.67677 7.8366454e-39
-60.591301 46.259483 104.67677 7.3756672e-39
-59.992466 47.059032 106.48599 8.0213869e-39
-57.634834 46.485142 105.18739 7.7437309e-39
-56.981674 47.292576 107.01446 7.3752987e-39
-55.603363 47.528446 107.5482 8.8511686e-39
-54.075706 47.64727 107.81707 1.0050417e-38
-52.278343 47.528446 107.5482 7.6522541e-39
-50.364635 47.292576 107.01446 8.2972578e-39
-48.589806 47.175514 106.74957 9.4025347e-39
-47.056118 47.292576 107.01446 8.4802071e-39
-45.742371 47.64727 107.81707 1.0048622e-38
-44.075706 47.64727 107.81707 1.0141923e-38
-42.198048 47.410217 107.28067 1.1617742e-38
-40.947105 47.886703 108.35886 9.493301e-39
-40.388325 49.247822 111.43884 1.1154606e-38
-37.786907 48.128555 108.90613 8.9408349e-39
-35.65324 47.528446 107.5482 8.8497239e-39
-33.906174 47.410217 107.28067 9.2177707e-39
-32.409039 47.64727 107.81707 8.3865625e-39
-30.81942 47.766685 108.08729 9.1248562e-39
-29.075705 47.64727 107.81707 1.05096e-38
-27.409039 47.64727 107.81707 1.4565853e-38
-25.742371 47.64727 107.81707 1.4935731e-38
-24.075705 47.64727 107.81707 1.4753484e-38
-22.409039 47.64727 107.81707 1.5673647e-38
-20.537001 47.175514 106.74957 1.3551002e-38
-18.840202 47.059032 106.48599 1.5120473e-38
-17.236671 47.175514 106.74957 1.4104875e-38
-15.703114 47.528446 107.5482 1.4198144e-38
-13.566944 45.925079 103.92007 1.7427157e-38
-12.047609 46.259483 104.67677 1.4104864e-38
-10.255246 45.486652 102.92799 1.6227181e-38
-8.7476664 45.925079 103.92007 1.6222109e-38
-7.1240745 45.814682 103.67026 1.2075467e-38
-5.5886822 46.372036 104.93146 9.1252066e-39
-3.9095483 45.704815 103.42165 1.2076914e-38
-2.2780495 45.056519 101.95467 1.1522296e-38
-0.69057733 44.32304 100.29495 9.8595374e-39
0.84992743 43.81358 99.142136 1.3920824e-38
2.4328289 44.73922 101.23669 6.0816746e-39
4.0356679 45.163288 102.19627 6.5419367e-39
5.6021714 45.056519 101.95467 8.4784092e-39
7.2123165 45.270565 102.43902 8.9401104e-39
8.8378325 45.486652 102.92799 9.4943772e-39
10.428923 45.486652 102.92799 1.5857313e-38
12.048768 45.595474 103.17423 1.5119032e-38
13.676383 45.704815 103.42165 1.3274401e-38
15.311824 45.814682 103.67026 9.8656877e-39
16.595249 44.950253 101.71422 1.6501262e-38
18.384373 45.486652 102.92799 1.742358e-38
19.693455 44.84449 101.47489 1.6778188e-38
21.262083 44.84449 101.47489 1.5854797e-38
23.157642 45.486652 102.92799 1.649908e-38
24.80794 45.595474 103.17423 1.3918328e-38
26.277107 45.378349 102.68292 1.3639561e-38
27.66679 45.056519 101.95467 1.382214e-38
29.31213 45.163288 102.19627 8.6606271e-39
30.107126 44.015953 99.600067 8.3818836e-39
31.214241 43.414368 98.238785 1.124212e-38
33.263237 44.11784 99.83062 1.0969139e-38
34.887207 44.220203 100.06225 1.3363697e-38
36.349659 44.11784 99.83062 1.613174e-38
38.516987 44.84449 101.47489 1.6592353e-38
39.991516 44.73922 101.23669 1.68711e-38
41.851189 45.056519 101.95467 1.7883442e-38
42.522499 44.11784 99.83062 1.4197786e-38
44.270664 44.32304 100.29495 1.4659122e-38
46.035168 44.530159 100.76362 1.9267114e-38
47.928749 44.84449 101.47489 1.4010518e-38
49.035862 44.426357 100.52874 1.5023583e-38
49.892075 43.81358 99.142136 1.6501601e-38
51.543133 43.914532 99.370575 1.5854799e-38
53.201813 44.015953 99.600067 1.7328828e-38
54.489777 43.81358 99.142136 1.6777094e-38
56.022343 43.81358 99.142136 1.7791261e-38
57.820751 44.015953 99.600067 1.649945e-38
59.497807 44.11784 99.83062 1.585875e-38
61.041016 44.11784 99.83062 1.6412278e-38
62.152611 43.81358 99.142136 1.4935352e-38
63.248978 43.513489 98.463074 1.4565842e-38
65.368019 43.914532 99.370575 1.345877e-38
65.842148 43.217476 97.793259 1.4842806e-38
70.219978 45.056519 101.95467 1.5301271e-38
68.70977 43.119701 97.572006 1.5121176e-38
69.74469 42.829006 96.914223 1.5116141e-38
73.217209 44.015953 99.600067 1.336695e-38
74.58461 43.914532 99.370575 1.2996016e-38
75.945717 43.81358 99.142136 1.4013035e-38
77.836151 44.015953 99.600067 1.3552797e-38
79.375793 44.015953 99.600067 1.3737538e-38
81.290916 44.220203 100.06225 1.3091796e-38
-90.457413 47.417244 103.67026 4.7945399e-39
-88.429703 47.190369 103.17423 5.3462787e-39
-86.42131 46.965652 102.68292 5.807973e-39
-85.649719 47.417244 103.67026 5.3469976e-39
-83.048965 46.854095 102.43902 5.3469976e-39
-80.320724 46.195724 100.9996 5.5313889e-39
-79.316704 46.522579 101.71422 5.807973e-39
-79.049438 47.303535 103.42165 6.7292104e-39
-76.714844 46.854095 102.43902 7.3752973e-39
-75.489937 47.077744 102.92799 5.8998183e-39
-73.898842 47.077744 102.92799 6.3615097e-39
-72.654556 47.303535 103.42165 7.560427e-39
-71.570732 47.646313 104.17108 7.006163e-39
-70.642967 48.111156 105.18739 7.1909074e-39
-68.849022 47.994099 104.93146 6.3611453e-39
-68.222916 48.70512 106.48599 6.9136073e-39
-66.087296 48.346996 105.70301 8.1132294e-39
-63.827545 47.877605 104.67677 8.1121588e-39
-62.058796 47.761681 104.42331 7.3749455e-39
-60.15329 47.531506 103.92007 9.5880288e-39
-59.551346 48.346996 105.70301 9.4983051e-39
-57.216179 47.761681 104.42331 7.559341e-39
-55.46767 47.646313 104.17108 7.9299172e-39
-54.382801 48.111156 105.18739 8.5723985e-39
-53.408104 48.70512 106.48599 8.2036188e-39
-52.018898 48.946835 107.01446 8.7564409e-39
-49.62579 48.228786 105.44456 8.2965389e-39
-48.231651 48.465786 105.96272 7.927385e-39
-46.25272 48.111156 105.18739 9.4947332e-39
-44.735817 48.228786 105.44456 8.1132266e-39
-43.531559 48.70512 106.48599 1.0877665e-38
-42.093338 48.946835 107.01446 1.0323755e-38
-40.64077 49.19096 107.5482 8.6656872e-39
-38.784821 48.946835 107.01446 9.5876449e-39
-37.31575 49.19096 107.5482 9.4950821e-39
-35.301109 48.70512 106.48599 9.1263024e-39
-33.738323 48.82568 106.74957 9.7698711e-39
-32.088158 48.82568 106.74957 1.0692901e-38
-30.213633 48.465786 105.96272 6.26644e-39
-28.57563 48.465786 105.96272 1.0417406e-38
-26.93763 48.465786 105.96272 1.4289632e-38
-24.871857 47.646313 104.17108 1.2815229e-38
-23.37447 47.877605 104.67677 1.5855856e-38
-21.969645 48.346996 105.70301 1.6318275e-38
-20.187222 47.994099 104.93146 1.4378951e-38
-18.342024 47.417244 103.67026 1.8436968e-38
-16.73946 47.417244 103.67026 1.6224662e-38
-15.100595 47.303535 103.42165 1.447259e-38
-13.3419 46.743065 102.19627 1.6134272e-38
-11.624392 46.195724 100.9996 1.6316485e-38
-10.039598 46.087791 100.76362 1.475096e-38
-8.481966 46.087791 100.76362 1.4564414e-38
-6.9568429 46.304165 101.23669 1.3643883e-38
-5.4301376 46.632565 101.95467 1.4102697e-38
-3.8179898 46.195724 100.9996 1.3642809e-38
-2.2305901 45.661053 99.83062 1.2352056e-38
-0.67796403 45.035557 98.463074 1.0598179e-38
0.82896507 44.227745 96.696922 1.1706704e-38
2.3661761 45.035557 98.463074 7.5582466e-39
3.9422495 45.661053 99.83062 1.2629009e-38
5.4854593 45.661053 99.83062 1.5395602e-38
7.0778208 45.980358 100.52874 1.3270424e-38
8.6117487 45.873428 100.29495 1.4194537e-38
10.138558 45.766994 100.06225 1.3735344e-38
11.712523 45.873428 100.29495 1.2073663e-38
13.324887 46.087791 100.76362 1.2811953e-38
14.917374 46.195724 100.9996 1.1241379e-38
16.401831 45.980358 100.52874 9.9539162e-39
17.831139 45.661053 99.83062 1.2626134e-38
19.374348 45.661053 99.83062 1.2074765e-38
20.966091 45.766994 100.06225 1.2904541e-38
22.512882 45.766994 100.06225 1.7053696e-38
24.456884 46.522579 101.71422 1.6591625e-38
25.846336 46.195724 100.9996 1.4193103e-38
27.279842 45.980358 100.52874 1.2073312e-38
28.370914 45.242142 98.914742 8.8439407e-39
29.695639 44.932972 98.238785 7.648273e-39
30.724333 44.227745 96.696922 1.2994192e-38
32.958069 45.242142 98.914742 1.0510316e-38
34.329647 45.035557 98.463074 1.2077293e-38
35.933758 45.138615 98.688393 1.6870761e-38
37.459312 45.138615 98.688393 1.649945e-38
39.436077 45.661053 99.83062 1.6962579e-38
40.884647 45.555599 99.600067 1.7608312e-38
42.522499 45.661053 99.83062 1.5945894e-38
43.86264 45.45063 99.370575 1.6590546e-38
45.503586 45.555599 99.600067 1.4383271e-38
47.371441 45.873428 100.29495 1.4657686e-38
48.359509 45.346146 99.142136 1.5024651e-38
48.880749 44.426968 97.132492 1.5760435e-38
49.932407 44.0303 96.265244 1.6497623e-38
51.883751 44.426968 97.132492 1.585299e-38
52.790764 43.932236 96.050842 1.6682752e-38
54.640625 44.227745 96.696922 1.6040986e-38
55.884789 44.0303 96.265244 1.4473674e-38
57.117893 43.83461 95.837395 1.6407959e-38
58.992661 44.128799 96.480598 1.5488517e-38
60.349075 44.0303 96.265244 1.5949492e-38
61.56234 43.83461 95.837395 1.604135e-38
63.752178 44.327133 96.914223 1.5396353e-38
64.958359 44.128799 96.480598 1.4015913e-38
66.301453 44.0303 96.265244 1.6868597e-38
67.189644 43.640652 95.413338 1.5762954e-38
68.664574 43.640652 95.413338 1.6319379e-38
69.069832 42.975105 93.958229 1.3367313e-38
72.253838 44.0303 96.265244 1.382864e-38
72.767372 43.448402 94.993011 1.2538253e-38
74.564278 43.640652 95.413338 1.2541138e-38
75.704224 43.448402 94.993011 1.1614151e-38
77.685997 43.737415 95.624893 1.5306284e-38
-90.240486 48.902256 103.42165 4.7009065e-39
-86.363586 47.645424 100.76362 5.0704065e-39
-84.805954 47.645424 100.76362 5.7157759e-39
-84.431946 48.322845 102.19627 5.254802e-39
-79.760345 47.423817 100.29495 7.6511667e-39
-78.392265 47.534363 100.52874 6.5448191e-39
-78.860321 48.785267 103.17423 6.7288601e-39
-75.284264 47.534363 100.52874 6.730295e-39
-73.902527 47.645424 100.76362 5.8998183e-39
-73.200035 48.208607 101.95467 7.4671412e-39
-71.793716 48.322845 102.19627 6.4533424e-39
-69.391762 47.757004 100.9996 9.3103195e-39
-67.989708 47.86911 101.23669 7.0969167e-39
-67.858391 48.902256 103.42165 7.0983614e-39
-66.418945 49.01981 103.67026 9.8642317e-39
-64.66095 48.902256 103.42165 7.6511695e-39
-62.463062 48.437626 102.43902 7.9284752e-39
-61.316463 48.785267 103.17423 8.4802071e-39
-59.43718 48.552956 102.68292 7.3756672e-39
-58.266064 48.902256 103.42165 7.558269e-39
-56.531776 48.785267 103.17423 8.7600422e-39
-54.805763 48.668831 102.92799 8.573137e-39
-52.836372 48.322845 102.19627 7.0079609e-39
-51.995869 49.01981 103.67026 8.5749349e-39
-50.636753 49.256622 104.17108 9.5883567e-39
-48.790741 49.01981 103.67026 8.6674906e-39
-47.301884 49.137928 103.92007 1.2535371e-38
-45.695457 49.137928 103.92007 9.0337522e-39
-43.983051 49.01981 103.67026 1.0695434e-38
-42.380486 49.01981 103.67026 9.4950933e-39
-41.173824 49.495731 104.67677 9.0341011e-39
-39.459923 49.375885 104.42331 9.217419e-39
-38.029884 49.616158 104.93146 9.2188581e-39
-35.97023 49.01981 103.67026 9.1262968e-39
-34.533691 49.256622 104.17108 9.4028893e-39
-33.003105 49.375885 104.42331 9.4018075e-39
-31.162537 49.01981 103.67026 9.6794761e-39
-29.418537 48.785267 103.17423 7.8344874e-39
-27.957409 49.01981 103.67026 1.1152457e-38
-26.228745 48.785267 103.17423 1.4197792e-38
-24.516544 48.552956 102.68292 1.4656958e-38
-22.766624 48.208607 101.95467 1.3369108e-38
-21.392876 48.668831 102.92799 1.595132e-38
-19.430792 47.757004 100.9996 1.2259523e-38
-17.911459 47.86911 101.23669 1.4658051e-38
-16.346514 47.86911 101.23669 1.548746e-38
-14.712496 47.645424 100.76362 1.2814502e-38
-13.063298 47.313786 100.06225 1.4470057e-38
-11.436901 46.986729 99.370575 1.7331357e-38
-9.9236679 47.095245 99.600067 1.3185082e-38
-8.40343 47.204262 99.83062 1.2075859e-38
-6.86022 47.204262 99.83062 1.4104864e-38
-5.4045844 47.981743 101.47489 1.3920475e-38
-3.7650845 47.095245 99.600067 1.2165881e-38
-2.2152066 46.878716 99.142136 1.0414869e-38
-0.66283089 45.518394 96.265244 9.2156211e-39
0.81977481 45.215611 95.624893 7.5553739e-39
2.3289554 45.82526 96.914223 8.849361e-39
3.8882461 46.557629 98.463074 1.3367653e-38
5.4226966 46.664165 98.688393 1.3828277e-38
6.980196 46.878716 99.142136 1.5393807e-38
8.5323772 46.986729 99.370575 1.9633364e-38
10.068476 46.986729 99.370575 1.6407956e-38
11.658299 47.204262 99.83062 1.7052601e-38
13.201509 47.204262 99.83062 1.3827589e-38
14.744719 47.204262 99.83062 1.6040634e-38
16.250313 47.095245 99.600067 1.7794145e-38
17.831139 47.204262 99.83062 1.512012e-38
19.329605 47.095245 99.600067 1.5764752e-38
20.821165 46.986729 99.370575 1.5119378e-38
22.408895 47.095245 99.600067 1.5391647e-38
24.115625 47.423817 100.29495 1.7605058e-38
25.547188 47.204262 99.83062 1.4747348e-38
26.477493 46.136292 97.572006 1.3087112e-38
27.859726 45.928471 97.132492 1.1426111e-38
29.229563 45.722511 96.696922 8.4783952e-39
30.451227 45.31609 95.837395 1.4379253e-38
31.861904 45.215611 95.624893 7.1905431e-39
33.414188 45.31609 95.837395 1.3181123e-38
35.051456 45.518394 96.265244 1.3550636e-38
36.539551 45.518394 96.265244 1.5947333e-38
38.370239 45.928471 97.132492 1.2810521e-38
39.604145 45.620224 96.480598 1.622573e-38
41.939999 46.557629 98.463074 1.5300533e-38
42.491932 45.518394 96.265244 1.6964751e-38
43.590824 45.115578 95.413338 1.5853355e-38
45.981308 46.032146 97.351753 1.6503403e-38
46.851639 45.417019 96.050842 1.6315412e-38
48.229004 45.31609 95.837395 1.4839192e-38
49.0564 44.719826 94.576378 1.419744e-38
50.079098 44.330959 93.753975 1.6038101e-38
52.44038 45.115578 95.413338 1.6593409e-38
53.796288 45.015984 95.202713 1.6592348e-38
53.957729 43.948795 92.945747 1.6685251e-38
55.394508 43.948795 92.945747 1.5119018e-38
58.860981 45.518394 96.265244 1.4931742e-38
59.682972 45.015984 95.202713 1.5486356e-38
59.963318 44.13905 93.348114 1.5762604e-38
61.273693 44.043716 93.1465 1.4013387e-38
62.713577 44.043716 93.1465 1.502504e-38
64.571854 44.330959 93.753975 1.5857311e-38
65.735321 44.13905 93.348114 1.613243e-38
67.324051 44.234795 93.550606 1.6869291e-38
67.310089 43.295628 91.564392 1.3456624e-38
69.762329 43.948795 92.945747 1.3737182e-38
71.352882 44.043716 93.1465 1.3367327e-38
72.635887 43.948795 92.945747 1.0140828e-38
75.20726 44.621971 94.369423 1.3735728e-38
78.206215 45.518394 96.265244 1.4753836e-38
-85.136383 47.644588 97.572006 6.3597076e-39
-82.69265 47.111649 96.480598 6.0845598e-39
-81.201225 47.111649 96.480598 6.2689539e-39
-79.354752 46.901798 96.050842 5.9927328e-39
-78.043785 47.006489 96.265244 5.99273e-39
-76.555687 47.006489 96.265244 5.5317518e-39
-75.743881 47.429974 97.132492 6.1764023e-39
-74.242378 47.429974 97.132492 6.7288418e-39
-73.070023 47.644588 97.572006 6.6377322e-39
-72.546516 48.300247 98.914742 7.0976426e-39
-72.008408 48.974205 100.29495 7.3749483e-39
-70.131828 48.747471 99.83062 7.0068847e-39
-68.115593 48.411282 99.142136 8.9411852e-39
-66.126976 48.079697 98.463074 8.1125134e-39
-64.604904 48.079697 98.463074 8.8529721e-39
-64.107384 48.860573 100.06225 8.4848944e-39
-63.146641 49.318283 100.9996 8.2057782e-39
-60.872566 48.747471 99.83062 8.0217583e-39
-59.192337 48.634892 99.600067 7.2823898e-39
-57.256001 48.300247 98.914742 7.0079693e-39
-57.304123 49.667236 101.71422 8.02211e-39
-56.396854 50.259922 102.92799 7.6515324e-39
-54.287506 49.784653 101.95467 7.1919962e-39
-52.217678 49.318283 100.9996 9.3103531e-39
-50.894783 49.550369 101.47489 1.0140817e-38
-50.393307 50.622375 103.67026 1.1985817e-38
-48.097034 49.902626 102.19627 9.2174386e-39
-46.517258 49.902626 102.19627 1.6134587e-38
-45.476295 50.500977 103.42165 9.9553372e-39
-44.089031 50.744354 103.92007 9.2195742e-39
-41.580853 49.667236 101.71422 8.6656872e-39
-40.680134 50.500977 103.42165 8.7578828e-39
-39.175358 50.622375 103.67026 9.4018103e-39
-37.482689 50.500977 103.42165 8.2043433e-39
-35.627655 50.140255 102.68292 6.9136045e-39
-33.959499 50.021156 102.43902 7.9277592e-39
-32.60833 50.380161 103.17423 8.9429901e-39
-30.939415 50.259922 102.92799 8.942623e-39
-29.208904 50.021156 102.43902 1.2632259e-38
-27.36537 49.550369 101.47489 1.2905244e-38
-25.980131 49.902626 102.19627 1.3552068e-38
-24.002211 49.088364 100.52874 1.484278e-38
-22.553352 49.318283 100.9996 1.3366947e-38
-20.55875 48.300247 98.914742 1.5579994e-38
-18.899654 47.970177 98.238785 1.4655167e-38
-17.500647 48.300247 98.914742 1.4381816e-38
-16.00831 48.411282 99.142136 1.3279081e-38
-14.343846 47.970177 98.238785 1.474916e-38
-12.738194 47.644588 97.572006 1.5764751e-38
-11.104284 47.111649 96.480598 1.5857665e-38
-9.656064 47.323387 96.914223 1.4287105e-38
-8.0852594 46.901798 96.050842 1.0323769e-38
-6.6748085 47.429974 97.132492 1.0320887e-38
-5.138587 47.111649 96.480598 1.1336112e-38
-3.6390214 47.006489 96.265244 1.1425773e-38
-2.1131907 46.181816 94.576378 8.5684314e-39
-0.64274514 45.58205 93.348114 1.0322674e-38
0.79852796 45.483601 93.1465 6.7234328e-39
2.2928874 46.590504 95.413338 7.6479353e-39
3.7929883 46.901798 96.050842 1.0601077e-38
5.3013835 47.111649 96.480598 1.7329567e-38
6.9482498 48.18972 98.688393 1.5210138e-38
8.3779449 47.644588 97.572006 1.5301274e-38
9.863924 47.537037 97.351753 1.5761867e-38
11.368815 47.537037 97.351753 1.5025389e-38
12.991007 47.970177 98.238785 1.3736448e-38
14.28188 47.217281 96.696922 1.5304137e-38
15.883488 47.537037 97.351753 1.6040631e-38
17.506937 47.861153 98.015518 1.3365501e-38
19.152674 48.18972 98.688393 1.1155336e-38
20.584021 47.970177 98.238785 1.622609e-38
21.952606 47.644588 97.572006 1.5486355e-38
23.407944 47.537037 97.351753 1.3825759e-38
24.800865 47.323387 96.914223 1.3551318e-38
26.122885 47.006489 96.265244 1.4471497e-38
27.610979 47.006489 96.265244 1.1243914e-38
28.90551 46.69381 95.624893 1.1056639e-38
29.660286 45.58205 93.348114 1.1334305e-38
31.170757 45.680927 93.550606 8.4780449e-39
32.61689 45.680927 93.550606 1.3181109e-38
34.28614 45.980148 94.163383 1.5394523e-38
36.296494 46.69381 95.624893 1.5577844e-38
38.027645 47.006489 96.265244 1.3552417e-38
39.692944 47.217281 96.696922 1.5300181e-38
41.003838 47.006489 96.265244 1.5026095e-38
41.838211 46.283314 94.784241 1.6317561e-38
42.926041 45.879974 93.958229 1.4933194e-38
45.06575 46.590504 95.413338 1.4842431e-38
46.437939 46.487656 95.202713 1.4382167e-38
48.229004 46.797573 95.837395 1.5207977e-38
48.629826 45.780235 93.753975 1.8715364e-38
49.754612 45.483601 93.1465 1.5117223e-38
51.640636 45.879974 93.958229 1.7794512e-38
52.74831 45.58205 93.348114 1.373538e-38
53.726151 45.190788 92.546844 1.6135691e-38
55.514153 45.483601 93.1465 1.6683459e-38
57.575806 45.980148 94.163383 1.5118311e-38
59.55151 46.385258 94.993011 1.5949858e-38
59.576458 45.287971 92.745865 1.5021777e-38
60.748863 45.094021 92.348671 1.6134625e-38
62.578419 45.385578 92.945747 1.7789815e-38
62.664669 44.428074 90.984871 1.5304511e-38
64.754196 44.901722 91.954857 1.5211938e-38
65.894661 44.711056 91.564392 1.5856935e-38
66.60305 44.241402 90.602577 1.4841001e-38
69.462914 45.190788 92.546844 1.4381818e-38
71.199104 45.385578 92.945747 1.0690751e-38
72.32415 45.190788 92.546844 8.2050453e-39
73.754761 45.190788 92.546844 9.5898029e-39
75.672539 45.483601 93.1465 1.4382178e-38
-84.562431 48.821514 96.914223 6.6377364e-39
-81.597389 47.959324 95.202713 5.8998071e-39
-79.424393 47.539551 94.369423 5.4384716e-39
-77.121826 47.025051 93.348114 6.8235668e-39
-75.352623 46.822357 92.945747 6.6373721e-39
-75.543938 47.853687 94.993011 7.1901885e-39
-73.268585 47.332405 93.958229 7.4660552e-39
-72.44751 47.748516 94.784241 8.2032699e-39
-72.0914 48.494587 96.265244 9.0344669e-39
-72.380508 49.715271 98.688393 8.757517e-39
-71.017464 49.8293 98.914742 7.1916263e-39
-70.458023 50.52459 100.29495 8.297992e-39
-67.959366 49.8293 98.914742 7.0990775e-39
-66.126976 49.601768 98.463074 8.4830854e-39
-64.604904 49.601768 98.463074 9.0351885e-39
-63.372208 49.8293 98.914742 7.4656992e-39
-62.128147 50.058926 99.370575 9.5862015e-39
-60.452755 49.943848 99.142136 7.0058113e-39
-58.383331 49.488781 98.238785 1.0047907e-38
-57.387623 49.943848 99.142136 8.297992e-39
-56.242935 50.29068 99.83062 8.8504287e-39
-54.699726 50.29068 99.83062 7.6526044e-39
-52.428345 49.601768 98.463074 8.7571653e-39
-51.613308 50.29068 99.83062 9.2195798e-39
-50.070099 50.29068 99.83062 9.8635129e-39
-49.095119 50.879566 100.9996 8.5738531e-39
-47.64542 50.999001 101.23669 8.8482693e-39
-45.758232 50.642365 100.52874 1.1708154e-38
-44.307514 50.760689 100.76362 8.3894534e-39
-43.357697 51.482403 102.19627 9.8631373e-39
-41.580853 51.239563 101.71422 8.7571653e-39
-40.103111 51.360695 101.95467 8.757517e-39
-38.34576 51.118999 101.47489 9.1266625e-39
-36.604877 50.879566 100.9996 6.5437485e-39
-34.718365 50.407364 100.06225 6.9136073e-39
-33.094788 50.29068 99.83062 7.2813108e-39
-31.69833 50.52459 100.29495 1.1246094e-38
-30.147942 50.52459 100.29495 1.3551337e-38
-28.597555 50.52459 100.29495 1.2354953e-38
-26.921949 50.29068 99.83062 1.474916e-38
-25.378738 50.29068 99.83062 1.2443899e-38
-23.616854 49.8293 98.914742 1.7055141e-38
-21.936861 49.488781 98.238785 1.3830449e-38
-20.279673 49.152882 97.572006 1.4200689e-38
-18.771376 49.152882 97.572006 1.4104878e-38
-17.341549 49.376305 98.015518 1.5026118e-38
-15.754786 49.152882 97.572006 1.4381453e-38
-14.24649 49.152882 97.572006 1.2353147e-38
-12.567593 48.494587 96.265244 1.5306666e-38
-10.933073 47.853687 94.993011 1.4380371e-38
-9.5065231 48.06543 95.413338 1.1243198e-38
-7.9962149 47.853687 94.993011 1.2811593e-38
-6.6004786 48.386581 96.050842 1.1704523e-38
-5.1156979 48.386581 96.050842 9.7669788e-39
-3.5909286 47.853687 94.993011 9.9502911e-39
-2.0634153 46.521572 92.348671 8.8432135e-39
-0.63315189 46.323185 91.954857 1.0972018e-38
0.79509342 46.721664 92.745865 5.9898307e-39
2.2579195 47.332405 93.958229 8.5669895e-39
3.7594962 47.959324 95.202713 9.4921968e-39
5.2196441 47.853687 94.993011 1.3732481e-38
6.7325611 48.172005 95.624893 1.3455538e-38
8.1925926 48.06543 95.413338 1.3457347e-38
9.6037769 47.748516 94.784241 1.5669689e-38
11.117848 47.959324 95.202713 1.5393081e-38
12.617372 48.06543 95.413338 1.4567298e-38
14.15493 48.279053 95.837395 1.6131375e-38
15.636412 48.279053 95.837395 1.6132816e-38
17.194313 48.494587 96.265244 1.6223213e-38
18.682407 48.494587 96.265244 1.5209064e-38
19.94787 47.959324 95.202713 1.613283e-38
21.707052 48.603073 96.480598 1.2630841e-38
23.095142 48.386581 96.050842 1.4380371e-38
24.309219 47.853687 94.993011 1.3550597e-38
25.949118 48.172005 95.624893 1.3179656e-38
27.488264 48.279053 95.837395 1.364135e-38
28.401711 47.332405 93.958229 9.7673418e-39
29.280025 46.422169 92.151344 8.1092778e-39
30.969221 46.822357 92.945747 9.7669788e-39
32.475994 46.923485 93.1465 1.1616298e-38
34.28614 47.435753 94.163383 1.5117939e-38
35.741745 47.435753 94.163383 1.4470409e-38
37.774689 48.172005 95.624893 1.1982933e-38
38.907806 47.748516 94.784241 1.4289988e-38
39.93417 47.229507 93.753975 1.4107036e-38
41.204296 47.025051 93.348114 1.5211589e-38
42.463474 46.822357 92.945747 1.6039544e-38
43.995071 46.923485 93.1465 1.567111e-38
45.930973 47.435753 94.163383 1.336622e-38
46.976303 47.025051 93.348114 1.5485662e-38
48.003689 46.621403 92.546844 1.4471125e-38
49.970467 47.12706 93.550606 1.4654786e-38
51.084164 46.822357 92.945747 1.3182907e-38
52.072048 46.422169 92.151344 1.6778534e-38
52.819378 45.834545 90.984871 1.4934273e-38
55.514153 46.923485 93.1465 1.5578937e-38
57.325478 47.229507 93.753975 1.7332089e-38
57.646877 46.323185 91.954857 1.4934641e-38
58.692909 46.028759 91.370399 1.3092179e-38
60.361103 46.224625 91.759209 1.5674361e-38
62.04356 46.422169 92.151344 1.4109196e-38
63.332733 46.323185 91.954857 1.6963305e-38
64.616425 46.224625 91.759209 1.4843145e-38
65.894661 46.126484 91.564392 1.4381113e-38
66.743271 45.738052 90.79332 1.3920853e-38
68.871742 46.224625 91.759209 1.3736084e-38
70.290184 46.224625 91.759209 1.5856948e-38
72.169281 46.521572 92.348671 9.7712948e-39
73.282982 46.323185 91.954857 9.6816313e-39
74.545502 46.224625 91.759209 1.1800336e-38
-84.184074 50.094498 96.480598 5.4388401e-39
-80.530754 48.78484 93.958229 7.8359237e-39
-76.459831 48.052017 92.546844 6.7310195e-39
-75.029221 48.052017 92.546844 8.2054251e-39
-73.756882 48.155357 92.745865 7.0068847e-39
-72.792816 48.468056 93.348114 6.177124e-39
-72.44751 49.213715 94.784241 5.994525e-39
-70.363724 48.78484 93.958229 6.1764023e-39
-69.061752 48.891357 94.163383 7.3756644e-39
-68.503571 49.540356 95.413338 7.2831058e-39
-67.627121 49.982681 96.265244 7.9295627e-39
-66.435608 50.206818 96.696922 8.75788e-39
-64.506935 49.871361 96.050842 9.7731221e-39
-63.446075 50.206818 96.696922 8.4805896e-39
-61.812714 50.094498 96.480598 1.0049326e-38
-60.052597 49.871361 96.050842 8.85044e-39
-58.698547 49.982681 96.265244 8.5724209e-39
-56.956184 49.760536 95.837395 6.731374e-39
-55.972233 50.206818 96.696922 9.0330305e-39
-54.477463 50.206818 96.696922 9.8624367e-39
-53.341496 50.546818 97.351753 8.8515175e-39
-51.60363 50.319641 96.914223 1.0324502e-38
-50.105503 50.319641 96.914223 8.2043461e-39
-50.070099 51.833893 99.83062 9.1248716e-39
-48.639481 51.954155 100.06225 9.5876407e-39
-47.312233 52.196365 100.52874 1.0877292e-38
-45.440468 51.833893 99.83062 1.0047177e-38
-43.897259 51.833893 99.83062 8.6624333e-39
-42.35405 51.833893 99.83062 9.1248716e-39
-40.810837 51.833893 99.83062 9.4032536e-39
-39.267628 51.833893 99.83062 8.297255e-39
-37.724419 51.833893 99.83062 7.7437281e-39
-36.097649 51.714184 99.600067 8.6649683e-39
-34.320217 51.358349 98.914742 1.0417404e-38
-33.094788 51.833893 99.83062 1.235207e-38
-31.551579 51.833893 99.83062 1.105989e-38
-30.008369 51.833893 99.83062 1.2905227e-38
-28.465158 51.833893 99.83062 1.3459494e-38
-26.613916 51.240826 98.688393 1.3458771e-38
-25.088364 51.240826 98.688393 1.4658404e-38
-23.562811 51.240826 98.688393 1.3183274e-38
-21.887005 50.891457 98.015518 1.3829381e-38
-20.142956 50.319641 96.914223 1.3367661e-38
-18.644829 50.319641 96.914223 1.5585414e-38
-17.069981 50.094498 96.480598 1.6133535e-38
-15.543783 49.982681 96.265244 1.4102728e-38
-13.962192 49.6502 95.624893 1.4382529e-38
-12.511737 49.760536 95.837395 1.3917951e-38
-10.981449 49.540356 95.413338 1.355276e-38
-9.5065231 49.540356 95.413338 1.3271849e-38
-8.0138664 49.430996 95.202713 9.952812e-39
-6.5566702 49.540356 95.413338 9.8591717e-39
-5.0371671 49.105793 94.576378 8.4769519e-39
-3.5135379 48.25914 92.945747 7.5535592e-39
-2.0244012 47.042522 90.602577 6.3571797e-39
-0.61864221 46.650501 89.847557 1.2998527e-38
0.7849648 47.541912 91.564392 6.0809585e-39
2.2335887 48.25914 92.945747 7.2776968e-39
3.6703703 48.25914 92.945747 9.4929101e-39
5.1181827 48.363373 93.1465 1.059926e-38
6.5439334 48.25914 92.945747 1.1888567e-38
7.9635525 48.155357 92.745865 1.3455894e-38
9.3770781 48.052017 92.546844 1.3178954e-38
10.854279 48.25914 92.945747 1.3272232e-38
12.29106 48.25914 92.945747 1.2258804e-38
13.757491 48.363373 93.1465 1.336695e-38
15.230271 48.468056 93.348114 1.4658063e-38
16.70944 48.573189 93.550606 1.4381829e-38
18.155571 48.573189 93.550606 1.4842088e-38
19.474968 48.25914 92.945747 1.4842094e-38
20.733017 47.846668 92.151344 1.5762954e-38
22.30047 48.155357 92.745865 1.4563342e-38
23.992142 48.678783 93.753975 1.5577124e-38
25.38623 48.573189 93.550606 1.2536459e-38
26.658876 48.25914 92.945747 1.0964795e-38
27.855524 47.846668 92.151344 9.3956796e-39
28.727573 46.943901 90.412636 7.4653349e-39
30.125196 46.943901 90.412636 1.0595298e-38
32.060524 47.744652 91.954857 9.6805748e-39
33.481987 47.744652 91.954857 1.2168415e-38
34.608284 47.340889 91.177223 1.5854046e-38
35.866074 47.14156 90.79332 1.447042e-38
37.666069 47.643066 91.759209 1.2812694e-38
39.084507 47.643066 91.759209 1.4749532e-38
40.58931 47.744652 91.954857 1.7423917e-38
41.832382 47.541912 91.564392 1.4197059e-38
42.974091 47.241016 90.984871 1.345877e-38
44.101437 46.943901 90.412636 1.1247166e-38
45.883831 47.340889 91.177223 1.5761533e-38
46.314117 46.360748 89.289497 1.8528812e-38
48.193275 46.845692 90.223488 1.6408324e-38
49.796329 47.042522 90.602577 1.6872902e-38
50.770248 46.650501 89.847557 1.5577824e-38
51.942707 46.456932 89.474747 1.7424273e-38
53.436699 46.553516 89.660767 1.4198868e-38
54.595692 46.360748 89.289497 1.4473293e-38
55.516193 45.979961 88.556114 1.5028629e-38
57.237713 46.264961 89.105019 1.2354953e-38
59.350876 46.845692 90.223488 1.5028992e-38
60.366707 46.553516 89.660767 1.5306303e-38
61.881359 46.650501 89.847557 1.6781049e-38
64.071136 47.241016 90.984871 1.4104512e-38
65.33976 47.14156 90.79332 1.4290339e-38
66.324379 46.845692 90.223488 1.3458449e-38
67.296715 46.553516 89.660767 1.5948801e-38
68.540222 46.456932 89.474747 1.47517e-38
69.77858 46.360748 89.289497 1.5393081e-38
71.903175 46.845692 90.223488 1.3647488e-38
72.99247 46.650501 89.847557 1.5119383e-38
-83.069054 50.902664 95.202713 6.5459065e-39
-78.645988 49.061504 91.759209 7.3753155e-39
-76.62426 49.58905 92.745865 7.283103e-39
-74.549286 49.166115 91.954857 5.9005315e-39
-73.598602 49.482635 92.546844 5.4377499e-39
-72.635597 49.803257 93.1465 5.8998183e-39
-72.44751 50.678917 94.784241 6.174952e-39
-69.605492 49.695923 92.945747 6.912517e-39
-68.315941 49.803257 93.1465 5.8994525e-39
-67.31221 50.128059 93.753975 7.9277536e-39
-66.733368 50.790546 94.993011 8.2976207e-39
-64.413658 50.128059 93.753975 8.4809414e-39
-62.827801 50.019321 93.550606 8.6674962e-39
-61.649128 50.23727 93.958229 9.4958332e-39
-61.128944 51.015282 95.413338 1.0234467e-38
-59.130737 50.56778 94.576378 8.3872926e-39
-57.668747 50.56778 94.576378 9.2195742e-39
-55.961315 50.346958 94.163383 9.9564232e-39
-55.107319 50.902664 95.202713 9.4972765e-39
-53.873501 51.128399 95.624893 8.4780561e-39
-52.511738 51.242016 95.837395 7.3753099e-39
-51.372742 51.585922 96.480598 8.6656844e-39
-49.99316 51.701588 96.696922 1.0692552e-38
-48.389893 51.585922 96.480598 9.586926e-39
-47.536541 52.287773 97.793259 9.1270184e-39
-46.340065 52.645908 98.463074 9.4947304e-39
-44.614277 52.406609 98.015518 1.0692183e-38
-43.295925 52.645908 98.463074 8.3876583e-39
-41.773857 52.645908 98.463074 8.0224645e-39
-40.529385 53.008984 99.142136 6.8214088e-39
-39.267628 53.377102 99.83062 7.8362754e-39
-37.12289 52.525986 98.238785 8.5738447e-39
-35.604286 52.525986 98.238785 9.03482e-39
-34.163506 52.645908 98.463074 9.956063e-39
-32.567081 52.525986 98.238785 1.1798899e-38
-31.406179 53.131123 99.370575 1.336478e-38
-29.529875 52.525986 98.238785 1.1062762e-38
-28.011272 52.525986 98.238785 1.3643534e-38
-26.135466 51.817768 96.914223 1.3276909e-38
-24.527103 51.585922 96.480598 1.382613e-38
-22.831371 51.128399 95.624893 1.3550616e-38
-21.2589 50.902664 95.202713 1.5025022e-38
-19.571213 50.346958 94.163383 1.6134637e-38
-18.115608 50.346958 94.163383 1.4564411e-38
-16.551588 50.019321 93.550606 1.6042795e-38
-15.138293 50.128059 93.753975 1.4009064e-38
-13.659324 50.019321 93.550606 1.3645695e-38
-12.186757 49.911057 93.348114 1.5856229e-38
-10.767061 50.019321 93.550606 1.5119381e-38
-9.2806664 49.803257 93.1465 1.3182554e-38
-7.8238831 49.695923 92.945747 1.3642795e-38
-6.3871012 49.695923 92.945747 1.6039879e-38
-4.8458824 48.647484 90.984871 1.3085668e-38
-3.4686842 49.061504 91.759209 1.0414869e-38
-1.9992011 47.840057 89.474747 9.8609681e-39
-0.61100465 47.446312 88.738327 1.1427586e-38
0.76864541 47.939518 89.660767 5.9905579e-39
2.2050748 49.061504 91.759209 9.7716662e-39
3.6467919 49.376675 92.348671 1.1428655e-38
5.096169 49.58905 92.745865 1.1704173e-38
6.5018954 49.376675 92.348671 1.6874708e-38
7.8956327 49.166115 91.954857 1.2441742e-38
9.2188158 48.647484 90.984871 1.2996366e-38
10.784551 49.376675 92.348671 1.5301623e-38
12.238309 49.482635 92.546844 1.2168053e-38
13.727841 49.695923 92.945747 1.3461314e-38
15.099539 49.482635 92.546844 1.5949142e-38
16.601404 49.695923 92.945747 1.6683107e-38
17.999395 49.58905 92.745865 1.5117585e-38
19.267345 49.166115 91.954857 1.4746644e-38
20.470573 48.647484 90.984871 1.5025763e-38
22.110275 49.166115 91.954857 1.3642455e-38
23.734161 49.58905 92.745865 1.3735005e-38
25.006521 49.271172 92.151344 1.3915792e-38
26.374666 49.166115 91.954857 1.1609812e-38
27.445023 48.545067 90.79332 9.7666033e-39
28.429569 47.840057 89.474747 7.5557228e-39
29.506609 47.348885 88.556114 1.1799601e-38
31.002857 47.54414 88.921295 9.0341067e-39
32.511494 47.741009 89.289497 1.2447503e-38
34.174778 48.139683 90.035133 1.3458418e-38
35.566566 48.139683 90.035133 1.3365871e-38
36.881359 48.039391 89.847557 1.3551338e-38
38.510941 48.341526 90.412636 1.3642455e-38
39.908566 48.341526 90.412636 1.4842091e-38
41.832382 48.95734 91.564392 1.6409754e-38
42.793526 48.443085 90.602577 1.4103069e-38
43.734688 47.939518 89.660767 1.5211211e-38
44.841019 47.642372 89.105019 1.5116531e-38
45.933716 47.348885 88.556114 1.7054422e-38
47.497704 47.54414 88.921295 1.57651e-38
49.074642 47.741009 89.289497 1.4291446e-38
50.246841 47.54414 88.921295 1.5489973e-38
52.268028 48.139683 90.035133 1.46584e-38
53.325836 47.840057 89.474747 1.4474013e-38
54.258682 47.446312 88.738327 1.6504125e-38
55.063923 46.96315 87.834679 1.2903446e-38
56.307018 46.867699 87.656151 1.4198515e-38
59.725723 48.545067 90.79332 1.2719757e-38
59.992531 47.642372 89.105019 1.4565859e-38
60.618473 47.058994 88.013931 1.4473649e-38
62.617977 47.54414 88.921295 1.4661286e-38
64.659134 48.039391 89.847557 1.5579622e-38
64.965271 47.251862 88.374649 1.4197786e-38
67.018051 47.741009 89.289497 1.2813424e-38
68.540222 47.840057 89.474747 1.2630466e-38
69.205444 47.348885 88.556114 1.2907776e-38
71.011818 47.642372 89.105019 1.3827939e-38
73.451546 48.341526 90.412636 1.2537555e-38
-81.983185 51.689705 93.958229 7.5586207e-39
-79.662964 51.132702 92.945747 6.7295789e-39
-77.557587 50.695671 92.151344 6.3611495e-39
-75.970749 50.587578 91.954857 6.6377364e-39
-74.232727 50.372768 91.564392 6.9139702e-39
-72.972229 50.479946 91.759209 5.3466305e-39
-72.479057 51.132702 92.945747 4.9782235e-39
-70.889496 51.022739 92.745865 5.4409869e-39
-68.716911 50.479946 91.759209 8.2976095e-39
-67.155586 50.372768 91.564392 6.0827676e-39
-65.740158 50.372768 91.564392 7.3756672e-39
-65.577812 51.354057 93.348114 7.0987258e-39
-63.996288 51.243141 93.1465 6.8225102e-39
-62.421585 51.132702 92.945747 9.1306324e-39
-60.984802 51.132702 92.945747 7.7437323e-39
-59.41996 51.022739 92.745865 8.0192289e-39
-58.11124 51.132702 92.945747 9.5869064e-39
-56.919804 51.354057 93.348114 7.8355776e-39
-55.597141 51.465454 93.550606 1.0136847e-38
-54.26873 51.577335 93.753975 8.390929e-39
-52.934528 51.689705 93.958229 8.2965389e-39
-51.594501 51.802563 94.163383 8.7582219e-39
-50.917107 52.606594 95.624893 1.0232298e-38
-49.329533 52.490208 95.413338 9.6798405e-39
-47.331032 51.915916 94.369423 8.3883828e-39
-46.277298 52.374336 95.202713 8.666406e-39
-45.204784 52.840923 96.050842 1.023519e-38
-44.014084 53.196354 96.696922 8.9437314e-39
-42.424194 53.077347 96.480598 9.4943576e-39
-41.489681 53.799488 97.793259 7.835209e-39
-40.343895 54.291931 98.688393 8.6645941e-39
-37.949921 53.077347 96.480598 7.3752875e-39
-36.377117 52.95887 96.265244 6.0842067e-39
-34.811317 52.840923 96.050842 6.0841983e-39
-33.25248 52.723499 95.837395 8.8507805e-39
-31.912832 52.95887 96.265244 8.1150217e-39
-30.222355 52.606594 95.624893 1.2535391e-38
-28.936642 52.95887 96.265244 1.3733211e-38
-27.448545 52.95887 96.265244 1.3736447e-38
-25.960451 52.95887 96.265244 1.308927e-38
-24.255785 52.490208 95.413338 1.7425376e-38
-22.48242 51.802563 94.163383 1.3090714e-38
-20.935394 51.577335 93.753975 1.4009434e-38
-19.359859 51.243141 93.1465 1.6687074e-38
-17.919975 51.243141 93.1465 1.447617e-38
-16.338934 50.804226 92.348671 1.447475e-38
-14.847794 50.587578 91.954857 1.4934624e-38
-13.483829 50.804226 92.348671 1.4746993e-38
-11.979322 50.479946 91.759209 1.6042056e-38
-10.471762 50.053955 90.984871 1.3732847e-38
-9.1424437 50.479946 91.759209 1.4378568e-38
-7.7736225 50.804226 92.348671 1.3458066e-38
-6.2391896 49.948578 90.79332 1.317967e-38
-4.7952991 49.531471 90.035133 1.363991e-38
-3.3893588 49.32552 89.660767 1.106061e-38
-1.9746207 48.617981 88.374649 9.2174162e-39
-0.59989548 47.930454 87.124908 8.936142e-39
0.75917542 48.717812 88.556114 7.6482842e-39
2.1501765 49.223183 89.474747 1.060143e-38
3.5480247 49.42828 89.847557 1.2349547e-38
4.9062495 49.121273 89.289497 1.3366913e-38
6.3655872 49.739151 90.412636 1.4932106e-38
7.7307973 49.531471 90.035133 1.4286018e-38
9.1035805 49.42828 89.847557 1.5578199e-38
10.625285 50.053955 90.984871 1.6593089e-38
11.956083 49.739151 90.412636 1.5671096e-38
13.58149 50.587578 91.954857 1.2537167e-38
15.002954 50.587578 91.954857 1.4289618e-38
16.216951 49.948578 90.79332 1.0044667e-38
17.583443 49.843643 90.602577 1.032196e-38
18.786663 49.32552 89.660767 1.2998176e-38
20.299273 49.635094 90.223488 1.3366958e-38
21.785124 49.843643 90.602577 1.0508543e-38
23.088673 49.635094 90.223488 1.2539008e-38
24.638004 49.948578 90.79332 1.3732844e-38
25.878073 49.635094 90.223488 1.0504541e-38
27.102673 49.32552 89.660767 8.0141829e-39
28.19558 48.818054 88.738327 7.5560774e-39
28.912914 47.737576 86.7743 1.4930682e-38
30.56176 48.222713 87.656151 8.1092596e-39
32.047047 48.41954 88.013931 1.1431556e-38
33.271786 48.222713 87.656151 1.364175e-38
35.199142 49.019783 89.105019 1.6132088e-38
35.981812 48.222713 87.656151 1.2721576e-38
37.642868 48.617981 88.374649 1.5303774e-38
40.416954 50.372768 91.564392 1.7056947e-38
41.832382 50.372768 91.564392 1.6594511e-38
42.614475 49.635094 90.223488 1.650268e-38
42.9314 48.41954 88.013931 1.4378951e-38
44.111897 48.222713 87.656151 1.2909194e-38
45.191353 47.930454 87.124908 1.483991e-38
46.632359 48.027477 87.30127 1.4657313e-38
47.692257 47.737576 86.7743 1.382504e-38
48.935177 47.641716 86.60006 1.4378211e-38
50.578556 47.930454 87.124908 1.5485629e-38
52.241978 48.222713 87.656151 1.3732841e-38
53.488274 48.124897 87.478355 1.419707e-38
54.508842 47.83382 86.949249 1.4010502e-38
55.62862 47.641716 86.60006 1.3920123e-38
57.197014 47.83382 86.949249 1.3921205e-38
58.072773 47.451149 86.253654 1.3365871e-38
60.127636 48.027477 87.30127 1.4839203e-38
62.617977 48.918709 88.921295 1.3644618e-38
64.124763 49.019783 89.105019 1.4381818e-38
64.700104 48.41954 88.013931 1.2352073e-38
66.33139 48.617981 88.374649 1.2906318e-38
68.540222 49.223183 89.474747 1.2629031e-38
69.205444 48.717812 88.556114 1.3183273e-38
69.857155 48.222713 87.656151 1.2906337e-38
72.539101 49.121273 89.289497 1.3741155e-38
-84.562431 54.814026 96.914223 6.819611e-39
-78.147179 51.569221 91.177223 5.9016133e-39
-74.075432 50.711521 89.660767 6.2685868e-39
-72.089928 50.293282 88.921295 5.6235817e-39
-72.052414 51.244205 90.602577 6.1760394e-39
-70.503738 51.136772 90.412636 6.268235e-39
-69.543495 51.460423 90.984871 6.2685896e-39
-67.993576 51.352085 90.79332 5.254446e-39
-65.896423 50.817169 89.847557 5.3466459e-39
-64.106865 50.501534 89.289497 6.271835e-39
-64.32473 51.788197 91.564392 8.3872926e-39
-62.909306 51.788197 91.564392 8.5752866e-39
-61.888069 52.120174 92.151344 6.9139716e-39
-60.853653 52.456432 92.745865 8.942274e-39
-59.29245 52.343864 92.546844 8.0203191e-39
-57.491718 52.009041 91.954857 8.2972662e-39
-56.552578 52.456432 92.745865 8.2050705e-39
-55.597141 52.911587 93.550606 9.4039879e-39
-54.151009 52.911587 93.550606 7.8362936e-39
-52.934528 53.142136 93.958229 8.8507945e-39
-51.482098 53.142136 93.958229 8.6660403e-39
-49.812614 52.911587 93.550606 7.5597039e-39
-48.261795 52.797058 93.348114 7.9288606e-39
-46.616985 52.569485 92.945747 8.0199688e-39
-45.180206 52.569485 92.945747 1.2537904e-38
-44.219933 53.142136 93.958229 8.8471903e-39
-42.860878 53.258167 94.163383 9.031569e-39
-41.135826 52.911587 93.550606 1.0048267e-38
-40.479977 53.965134 95.413338 1.0140449e-38
-38.747871 53.609322 94.784241 6.0849144e-39
-37.119507 53.374706 94.369423 5.9912768e-39
-35.582859 53.258167 94.163383 6.2682322e-39
-34.052902 53.142136 93.958229 7.6507981e-39
-32.529598 53.026611 93.753975 8.4805406e-39
-30.945776 52.797058 93.348114 1.0783649e-38
-29.502775 52.797058 93.348114 1.3827575e-38
-28.059772 52.797058 93.348114 1.25372e-38
-26.790737 53.142136 93.958229 1.2998527e-38
-25.505005 53.491756 94.576378 1.3185456e-38
-23.782246 52.911587 93.550606 1.3458066e-38
-22.049141 52.231781 92.348671 1.4292151e-38
-20.489962 51.898384 91.759209 1.4566957e-38
-19.031031 51.788197 91.564392 1.512119e-38
-17.541117 51.569221 91.177223 1.6046398e-38
-16.234642 51.898384 91.759209 1.345735e-38
-14.847794 52.009041 91.954857 1.410741e-38
-13.284701 51.460423 90.984871 1.6777835e-38
-11.490371 49.780083 88.013931 1.8346615e-38
-10.362453 50.92326 90.035133 1.7516127e-38
-8.9519758 50.817169 89.847557 1.5946978e-38
-7.6106534 51.136772 90.412636 1.493102e-38
-6.1741977 50.817169 89.847557 1.1889283e-38
-4.7165265 50.086739 88.556114 1.0229043e-38
-3.3203292 49.678699 87.834679 9.0294236e-39
-1.9272299 48.784481 86.253654 9.6780426e-39
-0.59508669 48.882248 86.426506 6.0802396e-39
0.74841785 49.377007 87.30127 7.8355579e-39
2.1324797 50.189796 88.738327 9.3096174e-39
3.4970262 50.086739 88.556114 1.2352795e-38
4.9062495 50.501534 89.289497 1.603737e-38
6.2348771 50.086739 88.556114 1.5211228e-38
7.5418572 49.678699 87.834679 1.705405e-38
9.0658064 50.606308 89.474747 1.6040637e-38
10.470655 50.711521 89.660767 1.3366242e-38
11.856657 50.711521 89.660767 1.6133181e-38
13.523819 51.788197 91.564392 1.437893e-38
14.844695 51.460423 90.984871 1.6870009e-38
16.148956 51.136772 90.412636 1.5670391e-38
17.473316 50.92326 90.035133 1.5760443e-38
18.631721 50.293282 88.921295 1.4013395e-38
20.214691 50.817169 89.847557 1.1890725e-38
21.513939 50.606308 89.474747 1.4011592e-38
22.99247 50.817169 89.847557 1.2444993e-38
24.432259 50.92326 90.035133 1.4751312e-38
25.716671 50.711521 89.660767 1.3456959e-38
26.990446 50.501534 89.289497 1.1243177e-38
27.738972 49.377007 87.30127 1.0228672e-38
28.286848 48.016224 84.895332 1.1247198e-38
30.133038 48.882248 86.426506 7.1894641e-39
31.65938 49.177906 86.949249 9.772385e-39
32.870922 48.980404 86.60006 1.1245357e-38
34.347553 49.177906 86.949249 1.4011592e-38
35.619823 49.078957 86.7743 1.4566207e-38
37.110542 49.277256 87.124908 1.4935003e-38
39.169518 50.189796 88.738327 1.5674733e-38
40.046856 49.577724 87.656151 1.5858034e-38
41.570854 49.780083 88.013931 1.5763683e-38
42.583775 49.377007 87.30127 1.5952022e-38
43.933304 49.377007 87.30127 1.4284209e-38
44.919113 48.980404 86.60006 1.2631168e-38
46.1651 48.882248 86.426506 1.1892896e-38
47.692257 49.078957 86.7743 1.3183274e-38
48.739437 48.784481 86.253654 1.2722656e-38
50.476585 49.177906 86.949249 1.2721227e-38
51.925358 49.277256 87.124908 1.0604304e-38
52.845127 48.882248 86.426506 1.0971668e-38
53.96484 48.687107 86.08149 1.1984015e-38
54.107525 47.641094 84.232086 1.1615949e-38
55.736187 47.921886 84.728539 1.3459141e-38
57.045944 47.921886 84.728539 1.1431193e-38
59.525154 48.882248 86.426506 1.318327e-38
59.782913 48.016224 84.895332 1.2536837e-38
61.702557 48.493523 85.73922 1.3920839e-38
62.654255 48.206009 85.230888 1.4659855e-38
65.393372 49.277256 87.124908 1.2076938e-38
66.875275 49.377007 87.30127 1.4380023e-38
67.004082 48.493523 85.73922 1.262866e-38
68.602234 48.687107 86.08149 1.2818455e-38
69.932907 48.687107 86.08149 1.0874061e-38
-85.718185 57.081795 98.238785 8.2965361e-39
-77.491859 52.534397 90.412636 6.1749632e-39
-72.419273 50.932739 87.656151 6.7302978e-39
-71.793869 51.455662 88.556114 5.7157773e-39
-70.861465 51.774601 89.105019 6.6380994e-39
-69.917427 52.097523 89.660767 5.3473605e-39
-68.106644 51.774601 89.105019 6.3607852e-39
-66.867386 51.881798 89.289497 6.2675106e-39
-65.896423 52.206059 89.847557 8.2050593e-39
-63.842506 51.66785 88.921295 6.6370148e-39
-62.339401 51.561539 88.738327 7.1901885e-39
-61.858627 52.315048 90.035133 6.8224878e-39
-60.847931 52.644764 90.602577 8.1139567e-39
-60.206276 53.316826 91.759209 7.7422917e-39
-58.663021 53.203625 91.564392 9.4039683e-39
-56.646252 52.644764 90.602577 8.7575311e-39
-55.361996 52.755596 90.79332 9.3114181e-39
-55.000607 53.774479 92.546844 8.0210366e-39
-53.569992 53.774479 92.546844 8.2054251e-39
-52.251503 53.890125 92.745865 8.7578954e-39
-50.927334 54.006268 92.945747 7.3785343e-39
-49.490551 54.006268 92.945747 7.4657048e-39
-47.950428 53.890125 92.745865 9.4929157e-39
-46.31752 53.659332 92.348671 9.6819803e-39
-44.986298 53.774479 92.546844 6.9132667e-39
-44.028088 54.357716 93.550606 7.6511723e-39
