# .PCD v0.7 - Point Cloud Data file format
VERSION 0.7
FIELDS x y z rgb
SIZE 4 4 4 4
TYPE F F F F
COUNT 1 1 1 1
WIDTH 1012
HEIGHT 1
VIEWPOINT 0 0 0 1 0 0 0
POINTS 1012
DATA ascii
-134.95406 -184.13557 195.14401 2.3418047e-38
-118.08688 -170.67094 182.7408 2.3509879e-38
-107.51936 -165.40552 178.94949 2.3509883e-38
-101.07944 -166.44353 181.96974 2.3509886e-38
-104.26297 -184.9834 204.39255 2.3509886e-38
-96.361298 -185.65327 207.34052 2.3509886e-38
-91.347519 -192.93062 217.81226 2.3509886e-38
-82.72036 -193.76743 221.16322 2.3509886e-38
-76.205002 -200.90878 231.86467 2.3509886e-38
-74.498718 -225.32571 262.96848 2.3509886e-38
-59.659607 -212.42908 250.73737 2.3509886e-38
-44.651138 -194.20531 231.86467 2.3509886e-38
-39.18996 -220.41093 266.215 2.3509886e-38
-27.625362 -221.9557 271.23792 2.3509886e-38
-16.917316 -242.18985 299.49185 2.3509886e-38
10.183342 -234.78696 297.42639 2.3509886e-38
27.463394 -269.02795 345.01462 2.3509886e-38
44.17429 -272.23669 353.4986 2.3509886e-38
-126.00192 -161.40675 179.69511 1.0697604e-38
-123.51146 -167.345 188.32677 1.2450062e-38
-109.69908 -157.9433 179.69511 2.0197705e-38
-100.29401 -154.28302 177.47665 2.3509886e-38
-100.06744 -165.51411 192.53049 2.341805e-38
-96.503601 -172.92238 203.42844 2.3509886e-38
-86.865852 -170.15927 202.47337 2.3509886e-38
-79.548477 -172.2515 207.34052 2.3509886e-38
-72.94873 -177.06348 215.63414 2.3509886e-38
-67.198975 -186.15468 229.39803 2.3509886e-38
-58.989319 -191.0578 238.26976 2.3509886e-38
-48.180817 -188.7616 238.26976 2.3509886e-38
-39.327839 -196.22229 250.73737 2.3509886e-38
-29.139694 -202.02797 261.37473 2.3509886e-38
-19.803535 -228.60417 299.49185 2.3509886e-38
-5.8520966 -212.44043 281.87469 2.3509886e-38
8.0990028 -244.94481 329.21243 2.3509886e-38
23.758335 -249.38704 339.58133 2.3509886e-38
42.149555 -264.88589 365.4816 2.3509886e-38
-121.17027 -145.38055 170.46178 7.6522485e-39
-114.79895 -145.46266 172.50731 8.1132266e-39
-112.36723 -151.05063 181.20515 7.5600529e-39
-102.85087 -147.44579 178.94949 8.0206667e-39
-101.92286 -156.78044 192.53049 1.0418859e-38
-99.40181 -165.25336 205.36584 1.2356776e-38
-90.952118 -164.84416 207.34052 2.3050708e-38
-82.740005 -165.22913 210.37477 2.3509886e-38
-77.747986 -173.34898 223.45506 2.3509886e-38
-69.409698 -175.74861 229.39803 2.3509886e-38
-61.970295 -182.26326 240.93201 2.3509886e-38
-51.32777 -180.9523 242.28555 2.3509886e-38
-42.994041 -190.38258 258.24448 2.3509886e-38
-32.445126 -194.89615 267.8685 2.3509886e-38
-21.2164 -201.05624 280.04434 2.3509886e-38
-8.7985649 -205.01372 289.4418 2.3509886e-38
4.3312302 -202.22435 289.4418 2.3509886e-38
21.325348 -243.57224 353.4986 2.3509886e-38
40.336563 -259.29379 381.65335 2.3509886e-38
-129.46539 -145.10391 179.69511 7.0983502e-39
-139.30789 -164.63791 206.34846 6.9136016e-39
-129.32863 -161.87482 205.36584 6.7295677e-39
-121.16671 -161.43314 207.34052 6.6373693e-39
-108.12249 -154.24408 200.5899 6.9136016e-39
-101.866 -156.68355 206.34846 7.6518842e-39
-92.950272 -155.43867 207.34052 9.1270156e-39
-86.886581 -159.57816 215.63414 7.8344846e-39
-79.901436 -163.21252 223.45506 1.511903e-38
-72.00341 -166.22675 230.62476 1.3278354e-38
-66.139656 -176.25739 247.85533 2.2775202e-38
-53.96587 -170.92184 243.65439 2.3509886e-38
-46.034058 -180.83365 261.37473 2.3509886e-38
-35.245502 -183.88712 269.54266 2.3509886e-38
-25.399593 -200.04359 297.42639 2.3509886e-38
-10.92786 -180.95384 272.95462 2.3509886e-38
1.7017593 -208.70438 319.45798 2.3509886e-38
17.078726 -216.8709 336.92834 2.3509886e-38
38.003822 -250.8611 395.65897 2.3509886e-38
-131.19713 -136.9525 179.69511 7.3742113e-39
-122.53513 -134.65968 178.94949 7.3734924e-39
-130.06902 -151.11967 203.42844 6.9128772e-39
-120.27367 -148.45894 202.47337 6.7284887e-39
-111.08896 -146.50769 202.47337 6.5451765e-39
-104.3539 -148.03136 207.34052 6.91288e-39
-100.76158 -154.97401 220.03484 6.8206843e-39
-92.671524 -156.03798 224.6189 6.5451765e-39
-87.494987 -163.22473 238.26976 6.6362945e-39
-76.265137 -160.0443 236.96059 6.6377322e-39
-67.749512 -163.1389 245.03879 7.0061546e-39
-57.951019 -164.51645 250.73737 7.282387e-39
-47.12492 -164.00713 253.68723 1.2539344e-38
-38.322121 -173.8329 272.95462 1.5211944e-38
-26.787952 -176.79727 281.87469 2.3234018e-38
-15.193031 -188.89622 305.86401 2.3509883e-38
-1.2819176 -180.81897 297.42639 2.3509886e-38
13.940643 -203.1743 339.58133 2.3509886e-38
31.852999 -216.98735 368.60538 2.3509886e-38
48.573849 -213.43507 368.60538 2.3509886e-38
67.606018 -217.31229 381.65335 2.3509886e-38
-176.35033 -163.16603 224.6189 6.2675078e-39
-141.25748 -143.85211 203.42844 5.8987252e-39
-132.02946 -141.89166 203.42844 5.8987252e-39
-127.61719 -145.4187 211.40602 5.8990812e-39
-113.04021 -137.323 202.47337 6.7281202e-39
-115.21471 -150.17804 224.6189 7.0969027e-39
-108.41336 -152.78799 231.86467 7.280215e-39
-104.04884 -160.01688 246.43901 7.5568018e-39
-92.869759 -157.64192 246.43901 6.6362903e-39
-84.093338 -159.83365 253.68723 6.5440947e-39
-73.889397 -160.2162 258.24448 6.6362903e-39
-65.7164 -166.71194 272.95462 6.2675106e-39
-56.556049 -173.99245 289.4418 5.9909237e-39
-42.016312 -165.64455 280.04434 5.6228628e-39
-31.789948 -176.71579 303.71005 5.8076226e-39
-17.76273 -171.3752 299.49185 6.5448191e-39
-4.3904648 -177.09789 314.79437 6.7266923e-39
10.926176 -192.31287 347.797 1.4476897e-38
25.868633 -183.05609 336.92834 2.3142544e-38
46.206356 -201.89091 378.30551 2.3509886e-38
62.274689 -194.82715 371.78299 2.3509886e-38
83.45639 -201.67575 392.06207 2.3509886e-38
-137.38553 -129.14166 195.14401 6.6359245e-39
-134.62494 -133.29239 204.39255 6.3593377e-39
-127.16116 -133.21671 207.34052 5.8983623e-39
-135.32144 -150.7926 238.26976 5.8068855e-39
-127.32678 -151.85223 243.65439 6.0827508e-39
-120.35382 -154.74988 252.20367 5.9894789e-39
-108.91324 -152.31937 252.20367 5.8061667e-39
-96.905952 -149.01743 250.73737 5.5295826e-39
-90.254517 -154.69559 264.58176 5.2544376e-39
-83.915436 -163.15636 283.72913 5.4377499e-39
-75.516129 -170.51852 301.58621 5.9912768e-39
-60.982533 -165.30023 297.42639 6.6359245e-39
-57.384392 -196.27434 359.39023 7.0958265e-39
-35.212776 -165.26645 308.04877 6.3593405e-39
-23.979424 -183.23943 347.797 6.2667917e-39
-7.5903702 -166.46321 321.84201 5.714334e-39
7.5744381 -176.53595 347.797 5.4377499e-39
24.748461 -183.54565 368.60538 5.2529957e-39
41.11787 -178.468 365.4816 6.9135792e-39
61.893166 -187.66919 392.06207 5.4384716e-39
99.267838 -183.44795 399.32248 2.0937416e-38
-168.40045 -133.0835 209.35353 7.8326615e-39
-144.4968 -124.80736 202.47337 7.0961782e-39
-137.24512 -124.61121 205.36584 6.6362805e-39
-139.1976 -133.43387 223.45506 6.267142e-39
-140.72768 -143.14758 243.65439 5.8061639e-39
-132.67317 -144.05493 249.28802 5.7139682e-39
-128.81055 -150.34288 264.58176 6.8188739e-39
-116.09622 -146.89191 262.96848 6.7266768e-39
-117.00986 -162.1552 295.38922 5.8054408e-39
-128.19577 -197.11053 365.4816 9.7630342e-39
-114.52835 -198.63849 375.0159 6.4493893e-39
-101.9493 -203.88919 392.06207 5.3459018e-39
-64.050385 -189.44368 378.30551 6.2660658e-39
-45.68721 -181.03387 368.60538 5.8076086e-39
-28.966358 -177.48161 368.60538 5.437031e-39
-11.554237 -164.11075 347.797 4.9767689e-39
4.1556683 -158.20728 342.2764 8.6645969e-39
21.01656 -165.41104 365.4816 5.5285008e-39
39.966606 -172.09807 388.52997 5.8061667e-39
-147.33231 -111.30331 191.67479 6.7273971e-39
-148.54016 -117.27441 205.36584 7.2805709e-39
-141.92763 -117.53404 209.35353 6.8195927e-39
-140.62244 -122.66184 222.30324 6.6362805e-39
-140.69119 -129.89323 239.59349 5.8976364e-39
-134.29927 -131.9837 247.85533 5.6217726e-39
-130.55936 -137.49725 262.96848 6.9110681e-39
-128.84366 -146.58234 285.60812 6.8188725e-39
-124.99326 -155.13084 308.04877 6.8188725e-39
-124.34173 -170.42163 345.01462 6.2656987e-39
-15.275541 -152.01152 356.42007 2.3509886e-38
0.84374046 -140.45139 336.92834 9.1237772e-39
17.796019 -151.39795 371.78299 9.7662516e-39
-166.76868 -110.34048 202.47337 7.1876564e-39
-145.93646 -100.37785 187.50795 6.8188767e-39
-148.39929 -106.43799 202.47337 7.0958153e-39
-143.2498 -107.51532 208.34216 6.5422856e-39
-142.03265 -112.0003 221.16322 6.7284747e-39
-142.2101 -118.36708 238.26976 6.45009e-39
-135.13458 -119.36833 245.03879 5.9894761e-39
-134.73674 -127.11859 266.215 7.4645978e-39
-128.20006 -130.17804 278.23761 7.6482702e-39
-131.72552 -145.30867 317.10904 7.2802065e-39
-126.65342 -153.54257 342.2764 5.8987154e-39
-122.82449 -166.05917 378.30551 6.4508102e-39
-2.5850143 -134.63394 362.41031 5.0693149e-39
-149.03949 -92.677917 189.15276 6.7273957e-39
-148.95192 -96.348602 200.5899 6.542287e-39
-145.96274 -98.540451 209.35353 5.9898321e-39
-146.4166 -103.56104 224.6189 6.6352015e-39
-146.94183 -109.37137 242.28555 6.4504543e-39
-138.28174 -108.87135 246.43901 5.8065198e-39
-137.30226 -115.04242 266.215 6.1753023e-39
-138.00426 -123.95412 293.37979 5.9905551e-39
-133.79771 -129.96817 314.79437 5.8983595e-39
-127.92146 -135.85956 336.92834 5.7139682e-39
-127.58945 -150.216 381.65335 6.4508102e-39
-5.6502552 -109.88359 336.92834 8.2025006e-39
9.7095003 -107.47625 339.58133 4.8849292e-39
-154.24492 -85.983078 193.39384 6.0820277e-39
-151.59009 -87.657059 201.52724 5.529577e-39
-144.47365 -86.933624 204.39255 6.0820277e-39
-148.58125 -93.371765 224.6189 5.2529929e-39
-150.97308 -99.49865 245.03879 5.7146899e-39
-142.28279 -98.821663 249.28802 5.8065198e-39
-139.0097 -102.33455 264.58176 5.8054408e-39
-138.01495 -108.43277 287.51218 5.0693205e-39
-135.83989 -114.85001 312.51324 5.4373814e-39
-130.15166 -119.64098 334.3165 5.7139682e-39
-123.6102 -125.15057 359.39023 6.0816718e-39
-9.3348217 -99.252129 353.4986 1.5481617e-38
-153.35785 -75.849716 189.98602 4.7927308e-39
-155.71513 -79.631615 204.39255 5.3441067e-39
-148.55556 -78.781998 207.34052 6.1742219e-39
-149.19183 -82.324951 222.30324 5.4363024e-39
-149.92709 -86.419022 239.59349 4.8860054e-39
-142.21895 -86.021637 245.03879 5.528498e-39
-142.43332 -90.890076 266.215 5.1600714e-39
-141.73059 -96.030716 289.4418 5.1615161e-39
-137.85265 -99.949356 310.26495 5.5288539e-39
-134.41545 -105.29176 336.92834 5.8972805e-39
-129.22746 -110.69263 365.4816 6.3582587e-39
-12.741507 -83.21656 353.4986 1.0229374e-38
3.6205025 -87.718956 388.52997 9.1216066e-39
-151.84418 -65.782532 185.89149 4.9771249e-39
-159.9592 -71.374664 207.34052 5.7128892e-39
-154.26193 -71.085297 212.44743 5.435938e-39
-156.164 -74.54628 229.39803 5.7132438e-39
-153.08655 -75.972534 240.93201 5.7139682e-39
-145.40659 -75.334106 246.43901 5.8054408e-39
-145.89946 -79.303436 267.8685 5.0675198e-39
-143.55649 -82.348251 287.51218 6.0827508e-39
-137.86714 -84.060715 303.71005 6.5422856e-39
-134.5099 -87.946609 329.21243 7.0961796e-39
-128.39719 -91.027794 353.4986 5.991274e-39
-119.20102 -92.954559 375.0159 5.4391792e-39
-16.695587 -69.458313 365.4816 7.464595e-39
-0.11947823 -67.656219 375.0159 9.6754951e-39
179.35463 -33.250538 395.65897 9.1305791e-39
192.01781 -28.649044 385.06097 9.7755856e-39
211.37236 -25.162857 388.52997 1.051387e-38
217.2536 -20.320187 368.60538 1.0698984e-38
228.12511 -16.348717 359.39023 1.0330201e-38
230.95552 -12.175041 339.58133 1.0329125e-38
250.30151 -9.0449181 345.01462 1.199118e-38
265.95224 -5.7199898 345.01462 1.5126571e-38
290.91214 -2.4742393 356.42007 1.6967963e-38
-152.32249 -56.859863 184.30269 5.0678744e-39
-152.43044 -58.323944 195.14401 5.5288539e-39
-154.03294 -60.553284 209.35353 4.8842076e-39
-151.91046 -61.522251 220.03484 6.1735031e-39
-155.40843 -65.043266 240.93201 6.7273971e-39
-147.78154 -64.155029 246.43901 5.7143242e-39
-138.18166 -62.494297 249.28802 5.6217726e-39
-144.4019 -68.394073 283.72913 7.0976244e-39
-147.00551 -73.38443 317.10904 5.3459074e-39
-128.83148 -68.319046 308.04877 4.7019743e-39
-121.81873 -69.310989 326.71838 4.7030477e-39
-108.64409 -67.180275 331.74484 4.9796318e-39
-91.484154 -62.540001 324.26187 5.3491374e-39
-77.946968 -60.32217 329.21243 5.2558642e-39
-67.111488 -60.86657 350.6246 4.7945259e-39
-51.206291 -57.487583 350.6246 6.1738702e-39
-34.736275 -53.242859 345.01462 5.8987281e-39
-19.085562 -49.917931 345.01462 6.083841e-39
-3.519309 -47.738735 353.4986 7.5578865e-39
12.51626 -44.33205 353.4986 5.437387e-39
29.519688 -42.312668 365.4816 1.2629009e-38
43.868244 -36.91354 347.797 9.5847554e-39
59.645176 -33.561802 347.797 1.5577111e-38
77.93618 -31.21706 359.39023 1.2262757e-38
96.655388 -28.465229 368.60538 9.4965394e-39
116.35983 -25.568565 378.30551 1.1248968e-38
127.91058 -21.001686 362.41031 1.37368e-38
138.52982 -16.803106 347.797 1.0786906e-38
150.66171 -13.133617 339.58133 9.9549448e-39
164.76857 -9.7840118 336.92834 8.7618022e-39
174.59636 -6.3389244 326.71838 1.0236918e-38
173.63232 -2.9244614 299.49185 9.1309351e-39
185.92688 -0.037979126 297.42639 9.4993617e-39
184.17667 2.6121597 274.69318 9.7770303e-39
205.81383 5.5048332 287.51218 9.7777436e-39
198.96008 7.5232735 261.37473 1.4666975e-38
230.36259 10.973217 285.60812 1.5951957e-38
-154.09863 -48.499435 184.30269 5.5288539e-39
-154.31105 -49.471729 195.14401 5.7125249e-39
-151.63397 -49.611496 203.42844 5.0685988e-39
-153.24905 -51.279297 218.91791 6.1742233e-39
-156.85402 -53.81337 239.59349 7.0961782e-39
-148.45978 -52.377342 243.65439 6.173873e-39
-140.58406 -51.185978 249.28802 5.0686016e-39
-127.79831 -48.226051 246.43901 4.7026932e-39
-120.04921 -47.199665 253.68723 4.794886e-39
-111.15678 -45.833298 259.80017 4.7948888e-39
-108.52425 -47.320473 283.72913 5.8108344e-39
-96.287071 -44.881432 285.60812 5.7171968e-39
-81.180695 -41.041809 278.23761 5.8093953e-39
-70.37529 -39.376587 285.60812 6.2660658e-39
-59.795372 -38.139648 297.42639 6.5451709e-39
-47.281616 -36.018547 303.71005 7.3745798e-39
-33.983215 -33.564415 308.04877 7.4667754e-39
-19.589586 -29.953861 301.58621 6.7292104e-39
-5.9927044 -27.43111 305.86401 7.9270333e-39
7.7718039 -24.141054 301.58621 1.1246446e-38
21.303526 -21.087189 299.49185 1.1981482e-38
34.889214 -18.200968 299.49185 1.0047533e-38
48.813892 -15.421844 301.58621 1.2814139e-38
61.632591 -12.342813 297.42639 1.0417771e-38
76.175278 -9.6090374 301.58621 1.2999601e-38
89.231972 -6.6560879 299.49185 7.3756644e-39
103.53667 -3.7962322 301.58621 1.4199234e-38
114.02778 -0.86561775 293.37979 1.2074388e-38
128.20837 1.9751396 295.38922 1.5491426e-38
139.69434 4.7566624 291.39749 1.3920839e-38
144.14714 7.1312199 274.69318 7.5607549e-39
151.77432 9.4766483 266.215 9.5912084e-39
156.13989 11.475487 253.68723 8.6724863e-39
168.63977 14.002655 255.18832 8.7628784e-39
175.03714 15.988876 247.85533 1.0421672e-38
179.07623 17.666739 238.26976 8.3962539e-39
181.84731 19.117964 228.18428 1.3919699e-38
-152.61378 -39.299282 180.44698 4.8827642e-39
-154.09981 -40.075508 192.53049 5.1611504e-39
-145.36615 -38.220078 192.53049 4.9767591e-39
-139.75195 -37.194893 196.92615 5.0703967e-39
-134.50392 -36.291389 202.47337 5.5328084e-39
-142.74332 -39.114708 230.62476 5.6221384e-39
-139.75513 -38.976467 243.65439 5.1622364e-39
-125.85812 -35.81889 238.26976 3.8725696e-39
-116.33508 -33.897224 240.93201 4.8885152e-39
-107.20251 -32.113567 245.03879 5.7193464e-39
-96.086945 -29.752117 245.03879 5.0732694e-39
-91.748238 -29.575193 264.58176 5.6235677e-39
-77.836075 -26.37809 258.24448 6.91288e-39
-63.828232 -23.060841 249.28802 7.2827415e-39
-56.086075 -22.061171 266.215 7.0979929e-39
-44.009911 -19.495642 266.215 7.3738581e-39
-32.332912 -17.141739 269.54266 6.6359274e-39
-20.489977 -14.822055 274.69318 9.0341011e-39
-7.9282198 -12.02168 271.23792 8.5724013e-39
4.1413832 -8.903758 256.70731 1.4013398e-38
15.786261 -6.4298558 256.70731 1.4381097e-38
26.638329 -3.841619 249.28802 9.95497e-39
38.167271 -1.4475832 250.73737 9.5847568e-39
49.541336 0.96878719 250.73737 8.0203065e-39
61.271633 3.404952 252.20367 1.2537905e-38
72.712212 5.835454 252.20367 1.4566207e-38
86.168427 8.4639406 258.24448 1.3554233e-38
95.037605 10.634267 250.73737 1.4659495e-38
109.59763 13.441373 258.24448 1.5767281e-38
119.17145 15.648972 253.68723 1.7332429e-38
124.10886 17.184027 240.93201 1.4749895e-38
135.03813 19.505901 240.93201 1.0138282e-38
143.56134 21.467979 236.96059 9.5887084e-39
150.99196 23.240795 231.86467 1.0420264e-38
155.65204 24.551315 223.45506 9.4961471e-39
157.6216 25.389257 212.44743 8.6685304e-39
164.02667 26.906448 208.34216 1.0141857e-38
-155.65532 -31.376328 181.96974 5.0678758e-39
-153.21916 -30.791988 189.15276 4.0551658e-39
-143.38101 -28.717209 187.50795 4.7026932e-39
-137.87242 -27.508186 191.67479 4.6104976e-39
-129.17758 -25.661007 191.67479 3.782176e-39
-122.66342 -24.244848 195.14401 4.7963195e-39
-107.03096 -21.031897 183.51842 5.9026643e-39
-106.89371 -20.861197 198.74115 5.2580138e-39
-104.11566 -20.153255 211.40602 4.8874362e-39
-98.383972 -18.85535 220.03484 4.6115724e-39
-89.314011 -16.907385 222.30324 5.5295826e-39
-78.823479 -14.689319 221.16322 6.1763911e-39
-69.865829 -12.754175 224.6189 6.3597062e-39
-58.758461 -10.426594 221.16322 7.0972726e-39
-48.977116 -8.3379908 222.30324 8.4809302e-39
-39.503777 -6.2929564 225.79491 8.941181e-39
-30.04775 -4.2276287 231.86467 8.1114246e-39
-20.18079 -2.0595737 239.59349 9.8624227e-39
-8.8687973 0.23752582 228.18428 1.4014843e-38
1.4590454 2.3984792 224.6189 1.3643537e-38
11.182382 4.3806186 215.63414 1.3829361e-38
20.859779 6.4265642 214.56134 9.2195742e-39
32.363972 8.9860792 226.98331 1.180035e-38
42.216118 11.057138 224.6189 1.2353149e-38
51.335884 12.951971 220.03484 9.4036053e-39
61.949345 15.227845 222.30324 1.3461312e-38
73.550064 17.735882 226.98331 1.2722659e-38
81.279861 19.313435 220.03484 1.797781e-38
91.261177 21.433922 220.03484 1.3274401e-38
100.72858 23.434847 218.91791 1.3461652e-38
107.38853 24.789558 212.44743 1.7791261e-38
119.98087 27.514626 217.81226 1.2912081e-38
126.66281 28.884295 212.44743 1.5577476e-38
133.66614 30.33395 208.34216 8.7582317e-39
141.07251 31.879726 205.36584 9.4968631e-39
147.57742 33.225975 201.52724 9.3131795e-39
151.07164 33.900787 194.26498 1.12475e-38
-153.52234 -22.550823 177.47665 4.239557e-39
-150.42378 -21.549934 183.51842 3.5974246e-39
-135.74492 -18.896824 175.3123 4.9796346e-39
-139.7196 -18.813345 191.67479 3.9662029e-39
-127.62152 -16.525488 186.69623 4.8874362e-39
-116.6281 -14.414289 182.7408 4.703768e-39
-108.79954 -12.707048 183.51842 5.3502122e-39
-104.94024 -11.424625 191.67479 4.8899571e-39
-96.245392 -9.5774441 191.67479 6.4526039e-39
-88.733665 -7.8347254 194.26498 7.0050756e-39
-80.282959 -5.989563 195.14401 6.6370148e-39
-74.463181 -4.2833862 203.42844 6.0838438e-39
-66.171555 -2.3562775 206.34846 7.6511695e-39
-56.272583 -0.36420155 204.39255 8.2969046e-39
-47.67873 1.6286983 207.34052 9.7723878e-39
-37.908745 3.592309 205.36584 1.0785098e-38
-28.72965 5.5980892 206.34846 9.1252122e-39
-19.462297 7.6231546 207.34052 1.0787277e-38
-10.056819 9.6213064 207.34052 1.4472567e-38
-0.64208007 11.454253 204.39255 1.4750261e-38
8.5486403 13.297949 202.47337 1.5024288e-38
17.487038 15.037403 199.66124 1.4471851e-38
26.061543 16.653156 196.03104 1.7328474e-38
34.79583 18.458416 195.14401 2.1475482e-38
44.248707 20.618927 197.82948 1.0045734e-38
54.21756 22.946455 201.52724 9.5876449e-39
63.359329 24.888584 201.52724 1.1337197e-38
73.882072 27.341776 205.36584 1.5214122e-38
80.886925 28.506428 199.66124 1.4846054e-38
85.210152 28.828966 189.15276 1.1987964e-38
94.62059 30.923096 190.82668 1.2904151e-38
99.321686 31.507387 183.51842 1.4381813e-38
109.51052 33.852165 186.69623 1.4937535e-38
116.96684 35.345352 185.09369 1.3093224e-38
126.44854 37.450569 186.69623 9.2159588e-39
130.40146 37.935974 180.44698 9.9567609e-39
124.05353 35.514282 161.5237 1.0141156e-38
-130.0553 -11.301436 156.82483 4.6115724e-39
-125.68351 -10.008473 160.32278 5.5321007e-39
-123.4594 -8.8242779 167.15825 4.242794e-39
-112.39167 -6.9964199 162.13094 4.6104863e-39
-105.43337 -5.4544621 162.74275 5.44061e-39
-94.830322 -3.7584553 157.39719 5.717194e-39
-98.472 -2.5172176 176.7493 5.8076086e-39
-91.580193 -0.82400513 178.94949 6.3604279e-39
-84.514664 0.91189194 181.20515 6.1753149e-39
-75.658958 2.6360245 179.69511 7.8355636e-39
-67.507538 4.3677568 179.69511 9.4032522e-39
-59.604477 6.1250095 180.44698 7.282387e-39
-52.07259 7.963953 182.7408 7.5589711e-39
-42.697483 9.4839191 178.21004 1.0138654e-38
-35.493443 11.48612 182.7408 9.4940087e-39
-28.533834 13.894844 191.67479 1.1152437e-38
-18.994781 15.072153 183.51842 1.4474379e-38
-10.491355 16.558876 180.44698 1.0232628e-38
-2.2772503 18.071018 178.21004 1.8529549e-38
5.5985851 19.078896 171.82004 9.5833022e-39
14.006601 21.685076 179.69511 1.3460249e-38
22.250727 23.514786 180.44698 1.7239174e-38
30.058937 24.940699 178.21004 1.6314689e-38
37.070694 25.908695 173.20012 1.0785098e-38
47.202286 28.97418 181.96974 1.355169e-38
54.311081 30.09296 178.21004 1.3554202e-38
62.395126 31.810379 178.21004 1.5119018e-38
67.682373 32.197334 171.1382 1.5765115e-38
75.14743 33.712822 170.46178 1.3186888e-38
83.208878 35.495869 171.1382 1.6228276e-38
91.334579 37.293129 171.82004 1.087694e-38
96.814468 38.03965 167.80867 1.5487826e-38
106.92294 40.604805 171.82004 1.1618131e-38
114.71712 42.260647 171.82004 8.9433657e-39
113.0527 40.525871 158.55452 1.7238813e-38
120.24513 42.053871 158.55452 1.2815555e-38
-132.4207 -5.4415665 149.74593 5.0707456e-39
-124.33271 -3.9572334 148.20216 4.3342624e-39
-120.93456 -2.6004944 152.39162 4.2417122e-39
-118.19831 -1.1733475 157.97372 4.6104948e-39
-110.62701 0.34778023 157.39719 4.3349869e-39
-105.02023 1.8922482 159.72899 4.6090626e-39
-96.347168 3.3814697 157.39719 6.728839e-39
-89.863174 4.9343338 158.55452 6.4515333e-39
-84.218887 6.5833492 161.5237 6.8214088e-39
-78.659401 8.3270855 165.23689 9.03482e-39
-71.437561 9.9576359 165.87242 7.9277564e-39
-63.668297 11.51188 165.23689 7.7440812e-39
-56.825916 13.256655 167.15825 8.7575199e-39
-49.822533 15.04248 169.12482 9.4028977e-39
-42.316563 16.737984 169.79066 9.402162e-39
-34.344017 18.230719 168.46417 8.5731286e-39
-27.233976 20.24972 171.82004 1.0327012e-38
-19.210194 21.646832 169.79066 8.5734747e-39
-11.418163 23.101215 168.46417 1.6595613e-38
-3.6757045 24.066641 163.98033 1.4842077e-38
3.6250153 24.707479 157.97372 8.5713279e-39
11.075069 26.920139 162.13094 1.6776387e-38
18.782789 29.028248 165.23689 1.7054771e-38
25.784388 30.045071 162.13094 1.6315415e-38
32.769466 31.255035 160.32278 8.4784092e-39
40.80048 33.421288 163.35919 1.3183622e-38
48.578876 35.262733 164.60622 1.3549546e-38
56.045818 36.849052 164.60622 8.7571639e-39
62.557682 37.857391 162.13094 8.8507973e-39
67.624306 38.129757 156.82483 1.7243865e-38
75.562584 40.078304 158.55452 1.6040295e-38
82.451881 41.453899 157.97372 1.3920146e-38
87.066559 41.752773 153.47626 1.2079081e-38
92.062859 42.328033 150.2677 1.6412312e-38
101.35136 44.870575 154.02438 1.733028e-38
104.60249 44.756474 148.7132 1.5760795e-38
112.12173 46.510391 149.74593 9.8634905e-39
-122.38976 1.2354565 136.91057 3.6896161e-39
-119.9883 2.6386375 141.39943 3.6878252e-39
-114.32375 4.0277233 142.33276 4.2417178e-39
-110.41809 5.5270767 145.69875 4.4250273e-39
-106.69243 7.1237183 149.74593 6.269314e-39
-99.899574 8.5668297 149.74593 5.9919999e-39
-94.0868 10.115305 151.3222 6.7292132e-39
-86.313889 11.453049 149.74593 7.8355579e-39
-79.521042 12.896158 149.74593 7.9277564e-39
-73.493752 14.490208 151.3222 6.913959e-39
-65.707199 15.727767 149.22778 8.4809302e-39
-59.975498 17.4681 151.85503 9.3114097e-39
-54.625732 19.480276 156.25662 1.032521e-38
-47.710407 21.062443 156.82483 1.0418143e-38
-41.195656 22.906965 159.13959 1.2078369e-38
-33.482487 24.085102 156.82483 8.5734915e-39
-25.990482 25.229458 154.57645 1.5026482e-38
-18.644382 26.248713 151.85503 1.576259e-38
-11.673655 27.518356 150.79311 1.4660193e-38
-4.7831349 28.670815 149.22778 7.5596927e-39
1.894434 28.717762 142.33276 1.308927e-38
8.5197067 30.697296 145.20818 9.4950933e-39
15.418185 32.758461 148.20216 9.6794902e-39
22.686731 35.029327 151.85503 9.6787685e-39
28.56929 35.251511 146.6899 9.8598863e-39
35.957329 37.429028 149.74593 9.3110538e-39
42.899128 39.00758 150.2677 1.1524101e-38
46.628723 37.94376 140.93735 7.4703557e-39
56.14093 41.613865 149.22778 8.2054139e-39
62.263931 42.609665 147.69461 1.0050065e-38
67.802719 43.29171 145.20818 1.3091442e-38
73.401154 44.097191 143.2785 1.327798e-38
81.250298 46.246178 145.69875 1.5855524e-38
85.829788 46.549454 142.33276 1.3183635e-38
90.202469 46.839035 139.1188 1.5765856e-38
94.68071 47.264923 136.47731 1.5668603e-38
103.15678 49.680687 139.56902 1.4936091e-38
-120.64518 7.2616291 133.51959 3.4130334e-39
-116.02524 8.6555595 135.19382 4.6094186e-39
-112.35806 10.181856 138.22702 4.8867355e-39
-107.11771 11.625742 139.56902 5.5306672e-39
-101.77461 13.097944 140.93735 5.7150585e-39
-96.008858 14.55127 141.86456 5.6235817e-39
-88.124123 15.660845 139.56902 6.1764023e-39
-83.41259 17.34263 142.33276 7.4660538e-39
-76.451393 18.591583 141.39943 6.0842067e-39
-70.267548 20.019897 141.86456 7.3749455e-39
-63.62294 21.316933 141.39943 8.2965417e-39
-57.58633 22.829306 142.33276 7.0972726e-39
-51.299065 24.281109 142.80406 8.2054447e-39
-45.119926 25.828371 143.75609 8.6642424e-39
-38.598797 27.213757 143.75609 7.8337629e-39
-31.760063 28.315983 142.33276 1.0968781e-38
-25.220263 29.589993 141.86456 1.3645341e-38
-18.60137 30.65464 140.47827 1.5395249e-38
-12.110584 31.698675 139.1188 1.7234131e-38
-5.6896887 32.412041 136.47731 1.2265303e-38
0.48888206 32.894508 133.1075 6.6344826e-39
6.6922069 35.042519 136.47731 1.8527754e-38
13.090281 36.942291 138.67148 1.557892e-38
19.134653 37.792595 136.91057 1.6131737e-38
25.345257 39.112011 136.91057 1.2810172e-38
31.062796 39.799686 134.77133 9.7702383e-39
37.886734 41.883804 137.34659 1.5672215e-38
43.289921 42.397285 134.77133 1.5671484e-38
50.670235 44.816494 138.22702 1.0786554e-38
57.49337 46.596638 139.56902 1.0508158e-38
62.018219 46.584831 135.61896 1.3738239e-38
68.170227 47.8918 135.61896 1.4197436e-38
71.837296 47.553825 131.08458 1.5949155e-38
77.313629 48.522125 130.29253 9.5858498e-39
81.500443 48.746864 127.59416 1.4475466e-38
87.030945 49.829071 127.21778 1.1431557e-38
93.909943 51.664692 128.7368 1.9360017e-38
-113.07452 14.25215 130.29253 5.1622392e-39
-107.48888 15.554783 130.68736 5.7150585e-39
-102.49232 16.968483 131.88632 6.3604279e-39
-93.093353 17.593836 127.21778 6.4526235e-39
-90.804626 19.57032 132.29088 6.5455408e-39
-84.54425 20.781471 131.88632 7.7440798e-39
-78.802544 22.12011 132.29088 6.6384511e-39
-73.477684 23.612297 133.51959 7.006163e-39
-66.800461 24.669899 132.29088 7.1909102e-39
-61.364124 26.185768 133.51959 7.4667754e-39
-54.966991 27.303444 132.69794 1.0231924e-38
-49.403515 28.848553 133.93425 8.9422853e-39
-44.011337 30.61467 136.04678 7.7437323e-39
-38.201447 32.230785 137.34659 1.4381099e-38
-30.237698 31.735188 129.90009 1.3458418e-38
-24.271997 32.887978 129.50999 1.1985831e-38
-18.397106 34.136074 129.50999 1.6780354e-38
-12.522212 35.384171 129.50999 1.437893e-38
-6.4723897 35.668262 126.10184 1.1244264e-38
-0.73281431 35.937778 122.86845 7.1865872e-39
5.0269876 38.549633 127.59416 1.4194188e-38
10.847064 39.897305 127.97279 1.2723036e-38
16.602961 41.008896 127.59416 1.5208329e-38
22.193958 41.866928 126.47163 9.766976e-39
27.135269 41.858231 122.86845 1.234665e-38
34.067711 44.830429 127.97279 1.5580361e-38
38.282501 44.22641 122.86845 1.3458757e-38
45.27499 46.879662 126.84361 1.1889648e-38
49.28931 46.462219 122.51939 1.465804e-38
56.616356 49.179813 126.47163 1.6408324e-38
60.924114 49.243362 123.57257 1.5211588e-38
65.962646 50.004395 122.51939 1.1431918e-38
71.116371 50.895943 121.82719 1.447148e-38
76.426857 51.923321 121.48402 1.3736811e-38
80.131882 51.923958 118.80669 1.7610823e-38
87.695511 54.418106 121.82719 2.0556012e-38
-107.81562 19.013685 122.86845 6.0849228e-39
-101.37555 20.026604 121.82719 6.268598e-39
-95.310684 21.081554 121.14278 5.1640455e-39
-90.322784 22.374714 121.82719 5.8101338e-39
-85.278191 23.68257 122.51939 7.8344817e-39
-81.812195 25.515686 125.73419 6.452992e-39
-76.108589 26.727394 125.73419 7.4667782e-39
-68.604851 27.224747 122.51939 6.8224906e-39
-62.868462 28.325008 122.17232 8.7578954e-39
-57.983459 29.840527 123.57257 7.7440798e-39
-52.528416 31.120571 123.92767 9.4047039e-39
-47.041924 32.407997 124.28481 9.1255765e-39
-41.049171 33.317688 123.21951 1.2075855e-38
-35.869568 34.904064 124.64401 1.2261317e-38
-30.658447 36.634666 126.47163 1.3551701e-38
-24.074196 36.566677 122.17232 1.8624259e-38
-18.324514 37.321156 120.80344 1.4753844e-38
-12.667161 37.953781 119.13488 1.354774e-38
-7.163959 38.569168 117.5118 8.6631382e-39
-1.828352 39.593746 117.19247 7.5600585e-39
3.5068464 40.945671 117.83286 1.5490709e-38
8.9006748 42.312447 118.48029 1.9175634e-38
14.120069 42.981918 117.19247 1.8896901e-38
19.542416 44.352356 117.83286 1.6040989e-38
24.290302 44.396206 115.00488 9.9538882e-39
29.905956 46.119442 116.559 1.5580005e-38
35.481041 47.62891 117.5118 1.4472923e-38
41.035294 49.028564 118.15569 1.511579e-38
47.039505 50.864002 119.79675 1.5211214e-38
50.509521 50.071274 115.31238 1.5763295e-38
57.114796 52.44458 118.15569 1.6225363e-38
61.630371 52.859154 116.559 1.521338e-38
66.917786 53.982441 116.559 1.6408681e-38
71.052979 54.226379 114.69901 1.2905994e-38
75.453308 54.749298 113.49165 1.2170576e-38
79.761971 55.26133 112.30945 2.2399599e-38
-103.64752 21.171459 111.15162 5.1633224e-39
-99.892685 22.533005 112.60268 4.8863796e-39
-95.282303 23.742146 113.19377 6.0845584e-39
-90.863007 25.030087 114.09214 5.992367e-39
-85.687515 26.129599 114.09214 6.2685896e-39
-82.031105 27.742868 116.24482 7.8370181e-39
-76.346382 28.708364 115.62152 7.7433679e-39
-71.101509 29.822615 115.62152 8.5738531e-39
-66.211647 31.103642 116.24482 9.0344585e-39
-61.103195 32.310989 116.559 7.9281081e-39
-55.815788 33.434277 116.559 7.6511807e-39
-51.080612 34.935242 117.83286 8.296906e-39
-45.73542 36.070805 117.83286 1.0878744e-38
-40.280174 37.10498 117.5118 1.1246446e-38
-34.572735 37.825188 116.24482 1.5395616e-38
-29.378773 39.050705 116.559 1.5491413e-38
-23.581499 39.323746 114.09214 1.4840634e-38
-18.118404 39.791645 112.30945 1.5488179e-38
-12.725517 39.937935 109.73747 1.1243917e-38
-7.6119709 40.278061 107.81707 7.0029148e-39
-2.7908955 42.376514 110.58161 8.0163507e-39
2.2027683 43.001152 109.45895 1.4105242e-38
7.2789421 44.737297 111.15162 1.2904537e-38
12.449399 46.285637 112.30945 1.7513969e-38
17.498463 47.244938 112.01774 1.4193455e-38
22.008224 47.101055 109.18185 7.738675e-39
26.757755 47.790283 108.35886 1.6960406e-38
31.514816 48.59037 107.81707 1.5856946e-38
36.866501 50.257629 109.18185 1.6963294e-38
41.193527 50.542095 107.5482 1.5483122e-38
46.890724 52.494911 109.45895 1.5120797e-38
50.697979 52.353878 107.01446 1.6591263e-38
54.603962 52.473724 105.18739 1.7792354e-38
60.859909 54.824608 107.81707 1.3369848e-38
64.303925 54.634369 105.44456 1.2168769e-38
69.087143 55.650543 105.44456 1.2905967e-38
74.599945 57.226395 106.48599 1.7701575e-38
-98.858513 24.746632 104.93146 4.7938238e-39
-94.790474 25.947258 105.70301 6.3611467e-39
-89.338623 26.769091 104.93146 6.9146891e-39
-83.763451 27.51256 103.92007 6.4526263e-39
-80.209038 28.932343 105.44456 7.0987146e-39
-77.510437 30.776237 108.35886 6.6373805e-39
-71.872681 31.50388 107.28067 7.9281333e-39
-67.341194 32.700436 107.81707 7.7422917e-39
-62.92226 33.994438 108.63181 8.0203191e-39
-57.273129 34.605492 107.28067 9.0351857e-39
-54.157993 36.830391 110.86588 1.02305e-38
-49.768539 38.392288 112.30945 1.0507436e-38
-44.213348 39.067661 111.15162 7.190906e-39
-38.574722 39.527584 109.45895 1.0877292e-38
-34.305962 41.423534 111.72753 1.290705e-38
-28.499399 41.427017 108.90613 1.6778565e-38
-22.754688 41.026134 105.18739 1.7423923e-38
-17.766464 41.533329 103.92007 1.2998176e-38
-13.308952 43.370876 105.96272 1.207369e-38
-8.047451 42.017586 100.29495 1.2073686e-38
-3.6155405 44.430717 103.67026 1.4287827e-38
1.0977526 45.870857 104.67677 1.6777463e-38
5.8461504 46.879635 104.67677 1.6223582e-38
10.858093 49.079666 107.28067 1.7423206e-38
15.380275 49.016159 104.93146 1.6041349e-38
19.802948 49.189606 103.17423 1.0691809e-38
24.193787 49.590717 101.95467 1.3827554e-38
29.23336 51.300934 103.42165 1.5025036e-38
33.602497 51.800724 102.43902 1.5949153e-38
38.340454 52.91362 102.68292 1.5675817e-38
42.29351 53.01952 100.9996 1.4657684e-38
47.884373 55.15538 103.17423 1.6316502e-38
52.564613 56.149677 103.17423 1.7700493e-38
56.03828 55.939537 100.9996 1.6680943e-38
58.962837 55.35717 98.238785 1.6595599e-38
64.297981 57.084095 99.600067 1.3090371e-38
68.816086 58.043945 99.600067 1.14265e-38
-98.432777 29.082026 103.42165 4.7009065e-39
-92.63063 29.722322 102.19627 5.254802e-39
-86.558952 30.206148 100.52874 6.5448191e-39
-82.1903 31.247786 100.76362 5.8998183e-39
-77.801193 32.294304 100.9996 9.3103195e-39
-75.155701 34.147316 103.67026 9.8642317e-39
-70.115868 34.978226 103.17423 8.4802071e-39
-65.435631 35.972523 103.17423 8.7600422e-39
-61.047482 37.144543 103.67026 8.5749349e-39
-56.480515 38.235531 103.92007 1.2535371e-38
-51.642006 39.142696 103.67026 9.4950933e-39
-47.510307 40.630112 104.93146 9.2188581e-39
-42.543335 41.43969 104.42331 9.4018075e-39
-37.533791 42.139923 103.67026 1.1152457e-38
-32.287746 42.425114 101.95467 1.3369108e-38
-27.468021 43.101971 101.23669 1.4658051e-38
-22.610298 43.566254 100.06225 1.4470057e-38
-18.029396 44.427479 99.83062 1.2075859e-38
-13.469652 45.284729 99.600067 1.2165881e-38
-8.5942783 44.398895 95.624893 7.5553739e-39
-4.3928614 46.772354 98.688393 1.3828277e-38
0.084467888 48.053303 99.370575 1.6407956e-38
4.6134214 49.237846 99.83062 1.6040634e-38
9.1208725 50.083984 99.600067 1.5764752e-38
13.734134 51.399956 100.29495 1.7605058e-38
17.707245 50.715309 97.132492 1.1426111e-38
21.770191 50.849693 95.624893 7.1905431e-39
26.282803 52.117916 96.265244 1.5947333e-38
31.349394 54.256721 98.463074 1.5300533e-38
35.411682 54.582523 97.351753 1.6503403e-38
38.692356 53.937881 94.576378 1.419744e-38
43.267227 55.212563 95.202713 1.6592348e-38
48.116947 56.756485 96.265244 1.4931742e-38
50.78344 55.815384 93.1465 1.4013387e-38
55.127861 56.835793 93.348114 1.613243e-38
59.106491 57.486538 92.945747 1.3737182e-38
64.292664 59.276516 94.369423 1.3735728e-38
-92.756332 31.506809 96.480598 5.4388401e-39
-84.776276 31.114075 92.546844 6.7310195e-39
-81.275772 32.283066 93.348114 6.177124e-39
-77.714119 33.472473 94.163383 7.3756644e-39
-75.418671 35.304947 96.696922 8.75788e-39
-70.873352 36.155754 96.480598 1.0049326e-38
-66.053444 36.838306 95.837395 6.731374e-39
-62.681057 38.358582 97.351753 8.8515175e-39
-59.748539 40.297386 99.83062 9.1248716e-39
-55.219975 41.25946 99.83062 1.0047177e-38
-50.69141 42.221531 99.83062 9.4032536e-39
-46.056236 43.083874 99.600067 8.6649683e-39
-41.634285 44.145679 99.83062 1.105989e-38
-36.681171 44.591644 98.688393 1.3458771e-38
-31.984848 45.232189 98.015518 1.3829381e-38
-27.107367 45.453644 96.480598 1.6133535e-38
-22.579231 46.074211 95.837395 1.3917951e-38
-18.111069 46.686558 95.202713 9.952812e-39
-13.465463 46.475487 92.945747 7.5535592e-39
-9.1117525 46.667175 91.564392 6.0809585e-39
-5.0438361 48.371185 93.1465 1.059926e-38
-0.81321144 48.951656 92.546844 1.3178954e-38
3.4068737 50.1665 93.1465 1.336695e-38
7.6653414 51.28569 93.550606 1.4842088e-38
11.806584 51.738323 92.745865 1.4563342e-38
16.048279 52.745552 92.945747 1.0964795e-38
19.712244 52.179352 90.412636 1.0595298e-38
24.014969 53.499294 91.177223 1.5854046e-38
28.330679 54.725071 91.759209 1.4749532e-38
32.218903 55.140079 90.984871 1.345877e-38
35.668938 54.973114 89.289497 1.8528812e-38
39.967579 56.182564 89.847557 1.5577824e-38
43.769722 56.694092 89.289497 1.4473293e-38
48.320324 58.156612 90.223488 1.5028992e-38
52.855392 59.524212 90.984871 1.4104512e-38
56.153419 59.522022 89.660767 1.5948801e-38
60.598602 60.765079 90.223488 1.3647488e-38
-94.107193 36.044682 96.914223 6.819611e-39
-82.996597 34.211018 89.660767 6.2685868e-39
-79.591248 35.369209 90.412636 6.268235e-39
-75.018089 36.014023 89.847557 5.3466459e-39
-72.297966 37.584595 91.564392 8.5752866e-39
-68.875542 38.879745 92.546844 8.0203191e-39
-65.378876 40.202991 93.550606 9.4039879e-39
-61.401577 41.283642 93.958229 8.6660403e-39
-56.523674 41.734501 92.945747 8.0199688e-39
-52.992676 43.188698 94.163383 9.031569e-39
-49.042427 44.386902 94.784241 6.0849144e-39
-44.352867 44.905567 93.958229 7.6507981e-39
-39.83036 45.513573 93.348114 1.3827575e-38
-36.064228 47.023872 94.576378 1.3185456e-38
-30.827549 46.507454 91.759209 1.4566957e-38
-26.665125 47.391743 91.759209 1.345735e-38
-21.584223 46.305576 88.013931 1.8346615e-38
-18.071133 48.438885 90.412636 1.493102e-38
-13.571468 47.904205 87.834679 9.0294236e-39
-9.5288486 48.454617 87.30127 7.8355579e-39
-5.6954689 50.418629 89.289497 1.603737e-38
-1.64849 51.385502 89.474747 1.6040637e-38
2.4665976 53.467999 91.564392 1.437893e-38
6.5096159 53.44268 90.035133 1.5760443e-38
10.527896 53.972321 89.474747 1.4011592e-38
14.617017 54.948597 89.660767 1.3456959e-38
17.691189 52.846241 84.895332 1.1247198e-38
21.974827 54.741978 86.60006 1.1245357e-38
26.060207 55.91338 87.124908 1.4935003e-38
30.318659 57.332115 88.013931 1.5763683e-38
33.760002 57.245689 86.60006 1.2631168e-38
37.537643 57.847939 86.253654 1.2722656e-38
41.533386 58.796764 86.426506 1.0971668e-38
44.560905 58.458153 84.728539 1.3459141e-38
48.499687 59.391373 84.895332 1.2536837e-38
53.725613 61.790771 87.124908 1.2076938e-38
56.987061 61.880333 86.08149 1.2818455e-38
-81.653801 37.270927 87.30127 6.3629558e-39
-77.06955 37.806133 86.60006 9.1288611e-39
-73.141159 38.640701 86.60006 7.4646118e-39
-69.491852 39.634445 86.949249 8.298348e-39
-67.311844 41.561699 89.289497 8.3905408e-39
-64.326904 43.136669 90.79332 7.4685845e-39
-59.457256 43.462643 89.660767 7.6511695e-39
-55.971848 44.792328 90.602577 8.8522616e-39
-51.971073 45.761612 90.79332 8.940465e-39
-47.452862 46.247139 90.035133 1.1337916e-38
-43.009487 46.724628 89.289497 9.493287e-39
-38.324326 46.809799 87.834679 1.1246796e-38
-34.764748 48.245831 88.921295 1.1801055e-38
-30.110229 48.110794 87.124908 1.8802536e-38
-25.948345 48.558033 86.426506 1.2628655e-38
-21.896185 49.09576 85.910019 1.2719047e-38
-17.821589 49.431339 85.062775 9.1245017e-39
-13.458567 48.43594 81.990166 7.4653349e-39
-10.02518 50.671074 84.396927 6.173873e-39
-6.1846237 51.383858 84.232086 1.4840285e-38
-2.3964119 52.919113 85.399658 1.6131021e-38
1.4573269 53.007359 84.232086 1.631506e-38
5.2783022 53.819107 84.232086 1.5668601e-38
9.1709242 55.061024 84.895332 1.6223583e-38
12.970922 55.66003 84.562408 1.3458418e-38
16.233917 54.549679 81.679596 7.8305175e-39
20.442425 56.733681 83.741417 9.9553582e-39
24.383179 57.877853 84.232086 1.0416334e-38
27.931385 58.122005 83.417465 1.1615949e-38
31.962702 59.385368 84.067894 1.4654451e-38
35.706623 60.078419 83.904335 1.2721552e-38
38.319897 59.048912 81.371376 1.1153862e-38
41.618477 59.273903 80.610893 8.4801931e-39
46.761055 62.021538 83.256424 1.1154969e-38
50.537769 62.823883 83.256424 1.0141179e-38
55.058525 64.497818 84.396927 1.1708143e-38
-80.698204 40.333027 85.399658 5.8998155e-39
-75.626221 40.514221 84.067894 7.0998048e-39
-70.982491 40.846645 83.096008 8.2047062e-39
-66.318581 41.093204 81.990166 6.3611495e-39
-62.599304 41.88335 81.990166 8.1143084e-39
-61.572353 44.624763 85.73922 9.3099678e-39
-58.379387 45.999744 86.7743 7.6529926e-39
-54.552856 46.93042 86.949249 7.6515324e-39
-50.203751 47.386204 86.253654 8.3887373e-39
-45.832748 47.74004 85.399658 1.1524457e-38
-42.20956 48.853256 85.910019 1.2537916e-38
-37.859959 49.094391 84.895332 1.1800336e-38
-33.942081 49.814468 84.728539 1.4661665e-38
-29.236984 49.181644 82.303108 1.6316883e-38
-25.262457 49.502453 81.525192 1.4477271e-38
-21.605114 50.383354 81.679596 1.1614503e-38
-17.698803 50.595558 80.761848 1.5486719e-38
-13.528559 49.519211 77.84626 1.0234819e-38
-10.162354 51.09956 79.131798 1.0509597e-38
-6.8361506 53.940601 82.303108 1.1152454e-38
-3.0388856 53.608395 80.610893 1.5025022e-38
0.6248312 55.00209 81.525192 1.4566572e-38
4.2745323 55.162098 80.610893 1.3090728e-38
8.0516415 56.78812 81.834587 1.3364429e-38
11.786223 57.686226 81.990166 9.9517218e-39
15.075589 56.855026 79.716873 6.2657127e-39
18.622896 57.411022 79.423256 6.1731569e-39
22.349209 58.49963 79.864494 1.2995296e-38
26.020245 59.379253 80.012665 1.6501262e-38
29.594906 60.038948 79.864494 1.4568365e-38
32.973511 60.361488 79.27726 1.1798529e-38
36.569725 61.125484 79.27726 9.1245017e-39
39.369858 60.662846 77.705994 6.5462428e-39
43.762146 62.653484 79.27726 8.2983228e-39
47.533112 63.651497 79.569794 7.6529561e-39
50.767925 63.946388 78.986862 1.1893599e-38
-78.866302 42.767273 82.618446 5.8987295e-39
-72.74929 42.189491 80.012665 5.1626035e-39
-68.233566 42.409798 78.986862 5.3480836e-39
-65.368866 43.650677 79.864494 7.9266774e-39
-63.029961 45.344009 81.525192 8.6678339e-39
-59.331779 46.129669 81.525192 8.5738447e-39
-56.164452 47.362999 82.303108 1.1247878e-38
-52.430977 48.156158 82.303108 8.021031e-39
-48.512344 48.763199 81.990166 8.5727727e-39
-45.136307 49.93306 82.618446 1.179925e-38
-40.763798 49.963531 81.371376 1.4287463e-38
-36.794895 50.367584 80.761848 1.4013395e-38
-32.823997 50.67144 80.012665 1.6134988e-38
-28.76745 50.690166 78.842461 1.3643534e-38
-25.053556 51.169338 78.412415 1.3644253e-38
-21.341366 51.550095 77.84626 1.4012344e-38
-17.682396 51.925388 77.288223 8.4758869e-39
-13.709598 50.935848 74.743202 7.3717001e-39
-10.632318 53.224281 77.012192 8.4784092e-39
-7.2423162 54.748577 78.128311 1.3181828e-38
-3.7049351 55.602234 78.270103 1.2169488e-38
-0.15385151 56.152706 77.98703 1.3459871e-38
3.3535118 56.394375 77.288223 1.3922642e-38
6.87181 57.241791 77.426979 1.3456623e-38
10.346937 57.780491 77.149963 1.1892196e-38
13.723896 58.005157 76.466003 9.9564232e-39
17.101616 58.431259 76.061424 8.5695245e-39
20.883432 60.11853 77.288223 1.3277297e-38
24.477152 61.082294 77.566238 1.2997437e-38
26.976835 59.579502 74.743202 1.3088919e-38
29.900982 59.373695 73.595268 1.060427e-38
34.536018 62.426601 76.466003 9.217405e-39
37.937439 63.051712 76.330666 7.7426406e-39
41.994602 64.703468 77.426979 7.5586207e-39
45.425323 65.332344 77.288223 6.9146835e-39
49.195805 66.434349 77.705994 8.6656872e-39
-68.441254 42.653664 74.485023 9.0323089e-39
-67.390244 44.923237 77.149963 7.7455259e-39
-63.776436 45.585186 77.012192 6.5459262e-39
-61.267632 47.084064 78.270103 7.4671328e-39
-58.459789 48.453922 79.27726 7.2813136e-39
-55.37252 49.674492 80.012665 7.4664251e-39
-51.456543 50.166359 79.569794 9.9557071e-39
-47.67115 50.745922 79.27726 1.1983637e-38
-43.673531 51.040798 78.555244 1.3181115e-38
-39.39254 50.871223 77.149963 1.3182558e-38
-35.892826 51.614723 77.149963 1.2443912e-38
-31.546602 50.989975 75.13385 1.4108845e-38
-28.485735 52.352489 76.061424 1.4010535e-38
-24.558949 52.075214 74.613892 8.5742104e-39
-21.321833 53.162182 75.13385 1.0505644e-38
-17.457373 52.513935 73.220421 6.3575482e-39
-14.088077 53.039463 72.972633 5.9887629e-39
-10.869819 54.201263 73.595268 1.2810521e-38
-7.6621079 55.863811 74.872963 1.6225391e-38
-4.2731037 56.683773 75.003181 1.4010888e-38
-0.87229156 57.506596 75.13385 1.3457361e-38
2.5227795 57.927906 74.743202 1.7327406e-38
5.8827305 58.344852 74.356598 1.3181834e-38
9.2717152 59.163441 74.485023 1.4107055e-38
12.628729 59.778011 74.356598 8.2932991e-39
15.365896 58.090836 71.402031 8.3858521e-39
19.111124 60.378365 73.344948 1.0694006e-38
23.025621 62.684284 75.264969 1.3366972e-38
26.256531 62.970036 74.743202 1.2351e-38
29.14201 62.605328 73.469894 1.4382552e-38
32.641609 63.638599 73.847305 1.2814488e-38
35.80756 64.021393 73.469894 1.2075835e-38
39.476593 65.285522 74.101082 8.2958144e-39
43.510849 67.036278 75.264969 7.8352118e-39
46.761837 67.525917 75.003181 5.8065338e-39
-69.519272 46.27224 74.872963 5.3477137e-39
-66.93631 47.57193 75.794075 6.7295915e-39
-64.518608 49.078648 77.012192 5.8076198e-39
-61.353825 50.089153 77.426979 6.2689623e-39
-59.773174 52.532978 80.012665 8.0203065e-39
-55.627579 52.814137 79.27726 7.9295739e-39
-51.935898 53.479828 79.131798 1.0509237e-38
-47.219933 52.978714 77.288223 1.115425e-38
-43.325726 53.246429 76.60183 1.3001023e-38
-39.99295 54.177101 76.874916 1.3736808e-38
-35.929306 54.050823 75.661102 1.3278365e-38
-32.270672 54.398232 75.13385 1.3738992e-38
-28.223213 53.901531 73.469894 1.2815931e-38
-24.848106 54.516693 73.344948 1.3735005e-38
-21.521 55.223526 73.344948 1.2538254e-38
-17.889645 54.99506 72.118439 8.4776819e-39
-14.642661 55.783356 72.239243 7.6526002e-39
-11.500559 57.149624 73.096321 1.1339344e-38
-8.2405977 58.248962 73.595268 1.1985799e-38
-4.9528456 59.568119 74.356598 1.1523735e-38
-1.6019421 61.127842 75.396553 8.3883856e-39
1.7931528 61.001274 74.356598 1.0417066e-38
5.1483984 61.505764 74.101082 1.3735027e-38
8.4086704 61.480431 73.220421 1.3271869e-38
11.790181 62.504414 73.595268 8.2904054e-39
14.184617 59.269123 69.002922 1.24479e-38
18.066319 62.535591 71.998047 7.2812968e-39
22.184137 65.754227 74.872963 1.585299e-38
25.360422 65.903702 74.228622 1.6316858e-38
28.241529 65.491821 72.972633 1.1799601e-38
31.712727 66.532791 73.344948 1.2995642e-38
34.803078 66.785294 72.849373 1.0139024e-38
38.963318 69.002609 74.485023 7.5593368e-39
42.415398 69.841057 74.613892 4.9782123e-39
46.119232 71.051819 75.13385 5.0714967e-39
