# .PCD v0.7 - Point Cloud Data file format
VERSION 0.7
FIELDS x y z rgb
SIZE 4 4 4 4
TYPE F F F F
COUNT 1 1 1 1
WIDTH 1012
HEIGHT 1
VIEWPOINT 0 0 0 1 0 0 0
POINTS 1012
DATA ascii
-151.74033 -168.31052 195.14401 2.3418047e-38
-133.50467 -156.76675 182.7408 2.3509879e-38
-122.4257 -152.68585 178.94949 2.3509883e-38
-116.13749 -154.42035 181.96974 2.3509886e-38
-121.325 -172.50215 204.39255 2.3509886e-38
-113.54359 -174.03023 207.34052 2.3509886e-38
-109.35384 -181.8112 217.81226 2.3509886e-38
-100.86949 -183.58437 221.16322 2.3509886e-38
-95.172279 -191.39403 231.86467 2.3509886e-38
-96.140457 -215.85135 262.96848 2.3509886e-38
-79.982712 -204.65089 250.73737 2.3509886e-38
-63.075371 -188.17358 231.86467 2.3509886e-38
-60.506233 -214.81863 266.215 2.3509886e-38
-49.179253 -217.61606 271.23792 2.3509886e-38
-40.743004 -238.89783 299.49185 2.3509886e-38
-12.996387 -234.49623 297.42639 2.3509886e-38
0.44425964 -270.41827 345.01462 2.3509886e-38
16.705254 -275.4313 353.4986 2.3509886e-38
-140.36157 -146.69423 179.69511 1.0697604e-38
-138.53394 -152.86877 188.32677 1.2450062e-38
-123.77817 -145.03033 179.69511 2.0197705e-38
-114.02985 -142.41815 177.47665 2.3509886e-38
-115.0301 -153.6069 192.53049 2.341805e-38
-112.29592 -161.35982 203.42844 2.3509886e-38
-102.41421 -159.66484 202.47337 2.3509886e-38
-95.368835 -162.543 207.34052 2.3509886e-38
-89.333549 -168.04639 215.63414 2.3509886e-38
-84.610123 -177.71069 229.39803 2.3509886e-38
-76.984489 -183.48036 238.26976 2.3509886e-38
-65.989975 -182.37723 238.26976 2.3509886e-38
-58.003937 -190.75937 250.73737 2.3509886e-38
-48.510117 -197.64207 261.37473 2.3509886e-38
-42.129578 -225.07832 299.49185 2.3509886e-38
-26.497725 -210.5334 281.87469 2.3509886e-38
-16.176661 -244.36598 329.21243 2.3509886e-38
-1.0955467 -250.49037 339.58133 2.3509886e-38
15.494694 -267.90347 365.4816 2.3509886e-38
-133.81006 -131.29092 170.46178 7.6522485e-39
-127.48575 -132.06775 172.50731 8.1132266e-39
-125.67827 -137.8877 181.20515 7.5600529e-39
-115.82539 -135.34276 178.94949 8.0206667e-39
-115.92147 -144.72293 192.53049 1.0418859e-38
-114.34 -153.42033 205.36584 1.2356776e-38
-105.89612 -153.93559 207.34052 2.3050708e-38
-97.775047 -155.21432 210.37477 2.3509886e-38
-93.698845 -163.83041 223.45506 2.3509886e-38
-85.67218 -167.12553 229.39803 2.3509886e-38
-78.988045 -174.41306 240.93201 2.3509886e-38
-68.266022 -174.27119 242.28555 2.3509886e-38
-61.011036 -184.5545 258.24448 2.3509886e-38
-51.017612 -190.19215 267.8685 2.3509886e-38
-40.528099 -197.5407 280.04434 2.3509886e-38
-28.61623 -202.82953 289.4418 2.3509886e-38
-15.260468 -201.48949 289.4418 2.3509886e-38
-2.8795204 -244.44482 353.4986 2.3509886e-38
14.302714 -262.14691 381.65335 2.3509886e-38
-142.02547 -130.11081 179.69511 7.0983502e-39
-153.94067 -148.45419 206.34846 6.9136016e-39
-143.7195 -146.79649 205.36584 6.7295677e-39
-135.55811 -147.24805 207.34052 6.6373693e-39
-121.80733 -141.52525 200.5899 6.9136016e-39
-115.85439 -144.63283 206.34846 7.6518842e-39
-106.85606 -144.36824 207.34052 9.1270156e-39
-101.28027 -149.14464 215.63414 7.8344846e-39
-94.733391 -153.5195 223.45506 1.511903e-38
-87.211418 -157.37752 230.62476 1.3278354e-38
-82.477173 -167.98808 247.85533 2.2775202e-38
-69.793892 -164.01277 243.65439 2.3509886e-38
-62.990967 -174.73087 261.37473 2.3509886e-38
-52.60001 -178.94331 269.54266 2.3509886e-38
-44.575813 -196.07765 297.42639 2.3509886e-38
-28.107498 -178.68097 272.95462 2.3509886e-38
-18.58131 -207.64391 319.45798 2.3509886e-38
-4.187254 -217.43953 336.92834 2.3509886e-38
12.904039 -253.51004 395.65897 2.3509886e-38
-142.85741 -121.81911 179.69511 7.3742113e-39
-133.99696 -120.48515 178.94949 7.3734924e-39
-143.28189 -136.02478 203.42844 6.9128772e-39
-133.25471 -134.44878 202.47337 6.7284887e-39
-123.91194 -133.51137 202.47337 6.5451765e-39
-117.38334 -135.76083 207.34052 6.91288e-39
-114.57003 -143.05402 220.03484 6.8206843e-39
-106.64437 -144.99438 224.6189 6.5451765e-39
-102.28293 -152.70306 238.26976 6.6362945e-39
-90.773102 -150.76695 236.96059 6.6377322e-39
-82.645988 -154.77228 245.03879 7.0061546e-39
-73.056313 -157.21077 250.73737 7.282387e-39
-62.239273 -157.8858 253.68723 1.2539344e-38
-54.561195 -168.61342 272.95462 1.5211944e-38
-43.41935 -172.81865 281.87469 2.3234018e-38
-33.213844 -186.11053 305.86401 2.3509883e-38
-18.504438 -179.59943 297.42639 2.3509886e-38
-5.8120861 -203.4823 339.58133 2.3509886e-38
10.486096 -219.1674 368.60538 2.3509886e-38
27.494715 -217.46085 368.60538 2.3509886e-38
45.990181 -223.3916 381.65335 2.3509886e-38
-190.60132 -142.94919 224.6189 6.2675078e-39
-153.61055 -127.57978 203.42844 5.8987252e-39
-144.22371 -126.63795 203.42844 5.8987252e-39
-140.22266 -130.62538 211.40602 5.8990812e-39
-124.84934 -124.1686 202.47337 6.7281202e-39
-128.41356 -136.70961 224.6189 7.0969027e-39
-121.93759 -140.04611 231.86467 7.280215e-39
-118.38792 -147.70807 246.43901 7.5568018e-39
-107.01644 -146.56711 246.43901 6.6362903e-39
-98.53157 -149.70338 253.68723 6.5440947e-39
-88.430298 -151.19708 258.24448 6.6362903e-39
-81.014885 -158.54584 272.95462 6.2675106e-39
-72.703651 -166.78239 289.4418 5.9909237e-39
-57.33984 -160.07086 280.04434 5.6228628e-39
-48.382584 -172.19185 303.71005 5.8076226e-39
-33.856384 -168.41373 299.49185 6.5448191e-39
-21.188396 -175.56139 314.79437 6.7266923e-39
-7.6234035 -192.35681 347.797 1.4476897e-38
8.2398949 -184.78575 336.92834 2.3142544e-38
26.401009 -205.72728 378.30551 2.3509886e-38
43.144165 -200.45898 371.78299 2.3509886e-38
63.452106 -209.57796 392.06207 2.3509886e-38
-148.15657 -113.37965 195.14401 6.6359245e-39
-145.86537 -117.80682 204.39255 6.3593377e-39
-138.43791 -118.54601 207.34052 5.8983623e-39
-148.46729 -135.12654 238.26976 5.8068855e-39
-140.63599 -137.05219 243.65439 6.0827508e-39
-134.02083 -140.69339 252.20367 5.9894789e-39
-122.38335 -139.52574 252.20367 5.8061667e-39
-110.08746 -137.5537 250.73737 5.5295826e-39
-104.09531 -143.92374 264.58176 5.2544376e-39
-98.717293 -153.02567 283.72913 5.4377499e-39
-91.171463 -161.26039 301.58621 5.9912768e-39
-76.155243 -157.65909 297.42639 6.6359245e-39
-75.958351 -188.84085 359.39023 7.0958265e-39
-50.535671 -160.43739 308.04877 6.3593405e-39
-41.330528 -179.52878 347.797 6.2667917e-39
-23.208784 -164.64105 321.84201 5.714334e-39
-9.2336197 -176.30835 347.797 5.4377499e-39
7.0729895 -185.15016 368.60538 5.2529957e-39
23.89871 -181.88898 365.4816 6.9135792e-39
43.545967 -193.30214 392.06207 5.4384716e-39
81.158081 -193.18427 399.32248 2.0937416e-38
-179.41644 -113.91374 209.35353 7.8326615e-39
-154.75244 -108.29529 202.47337 7.0961782e-39
-147.52267 -108.89157 205.36584 6.6362805e-39
-150.42618 -117.44852 223.45506 6.267142e-39
-153.00703 -126.93727 243.65439 5.8061639e-39
-145.09964 -128.71809 249.28802 5.7139682e-39
-141.94618 -135.38995 264.58176 6.8188739e-39
-128.93121 -133.34692 262.96848 6.7266768e-39
-131.50487 -148.41937 295.38922 5.8054408e-39
-146.43816 -181.94545 365.4816 9.7630342e-39
-133.01907 -184.9556 375.0159 6.4493893e-39
-121.08806 -191.54753 392.06207 5.3459018e-39
-81.839203 -181.32364 378.30551 6.2660658e-39
-62.668045 -174.96776 368.60538 5.8076086e-39
-45.659424 -173.2612 368.60538 5.437031e-39
-26.892292 -161.8701 347.797 4.9767689e-39
-10.63203 -157.71608 342.2764 8.6645969e-39
5.342144 -166.71661 365.4816 5.5285008e-39
23.449379 -175.43147 388.52997 5.8061667e-39
-156.09753 -94.562469 191.67479 6.7273971e-39
-157.94971 -100.36613 205.36584 7.2805709e-39
-151.405 -101.34573 209.35353 6.8195927e-39
-150.66711 -106.58533 222.30324 6.6362805e-39
-151.52452 -113.76604 239.59349 5.8976364e-39
-145.39888 -116.5415 247.85533 5.6217726e-39
-142.2829 -122.4302 262.96848 6.9110681e-39
-141.56879 -131.64825 285.60812 6.8188725e-39
-138.67413 -140.56584 308.04877 6.8188725e-39
-139.69495 -155.83643 345.01462 6.2656987e-39
-29.271168 -149.43706 356.42007 2.3509886e-38
-11.986739 -139.70483 336.92834 9.1237772e-39
3.669879 -152.43579 371.78299 9.7662516e-39
-175.31277 -91.484573 202.47337 7.1876564e-39
-153.51788 -83.854553 187.50795 6.8188767e-39
-156.62724 -89.609764 202.47337 7.0958153e-39
-151.62607 -91.242569 208.34216 6.5422856e-39
-150.90558 -95.833572 221.16322 6.7284747e-39
-151.77669 -102.14297 238.26976 6.45009e-39
-144.85266 -103.9103 245.03879 5.9894761e-39
-145.30286 -111.65769 266.215 7.4645978e-39
-139.13905 -115.41212 278.23761 7.6482702e-39
-144.29443 -130.06773 317.10904 7.2802065e-39
-140.15108 -138.80591 342.2764 5.8987154e-39
-137.71077 -151.66559 378.30551 6.4508102e-39
-14.760246 -133.54799 362.41031 5.0693149e-39
-155.76219 -75.862007 189.15276 6.7273957e-39
-156.07568 -79.520332 200.5899 6.542287e-39
-153.34351 -82.025261 209.35353 5.9898321e-39
-154.34248 -86.966339 224.6189 6.6352015e-39
-155.49857 -92.684669 242.28555 6.4504543e-39
-146.83565 -93.132599 246.43901 5.8065198e-39
-146.53537 -99.373688 266.215 6.1753023e-39
-148.20557 -108.15558 293.37979 5.9905551e-39
-144.68037 -114.59273 314.79437 5.8983595e-39
-139.48204 -121.09012 336.92834 5.7139682e-39
-140.71854 -135.39708 381.65335 6.4508102e-39
-15.106533 -108.61095 336.92834 8.2025006e-39
0.42418861 -107.89397 339.58133 4.8849292e-39
-160.20604 -68.639145 193.39384 6.0820277e-39
-157.74971 -70.592812 201.52724 5.529577e-39
-150.59682 -70.650215 204.39255 6.0820277e-39
-155.3824 -76.601715 224.6189 5.2529929e-39
-158.42848 -82.43103 245.03879 5.7146899e-39
-149.7162 -82.706329 249.28802 5.8065198e-39
-146.84598 -86.555389 264.58176 5.8054408e-39
-146.52258 -92.725739 287.51218 5.0693205e-39
-145.06071 -99.341995 312.51324 5.4373814e-39
-139.92923 -104.72502 334.3165 5.7139682e-39
-134.02803 -110.9155 359.39023 6.0816718e-39
-17.609043 -97.640915 353.4986 1.5481617e-38
-158.21855 -58.663086 189.98602 4.7927308e-39
-160.97443 -62.165184 204.39255 5.3441067e-39
-153.76489 -62.101864 207.34052 6.1742219e-39
-154.78397 -65.55423 222.30324 5.4363024e-39
-155.96156 -69.543633 239.59349 4.8860054e-39
-148.25607 -69.9897 245.03879 5.528498e-39
-149.0004 -74.805679 266.215 5.1600714e-39
-148.86278 -79.99231 289.4418 5.1615161e-39
-145.43558 -84.310692 310.26495 5.5288539e-39
-142.60184 -89.996239 336.92834 5.8972805e-39
-138.03415 -95.930954 365.4816 6.3582587e-39
-19.245655 -81.329376 353.4986 1.0229374e-38
-3.4726257 -87.590256 388.52997 9.1216066e-39
-155.61543 -48.821175 185.89149 4.9771249e-39
-164.29216 -53.49445 207.34052 5.7128892e-39
-158.59735 -53.828468 212.44743 5.435938e-39
-160.86572 -57.061237 229.39803 5.7132438e-39
-157.96227 -58.814774 240.93201 5.7139682e-39
-150.25851 -59.018162 246.43901 5.8054408e-39
-151.18155 -62.910011 267.8685 5.0675198e-39
-149.18481 -66.192299 287.51218 6.0827508e-39
-143.71629 -68.515335 303.71005 6.5422856e-39
-140.80309 -72.744354 329.21243 7.0961796e-39
-135.06308 -76.474136 353.4986 5.991274e-39
-126.13205 -79.392845 375.0159 5.4391792e-39
-21.674889 -67.22184 365.4816 7.464595e-39
-5.0011158 -67.239212 375.0159 9.6754951e-39
177.15555 -52.622395 395.65897 9.1305791e-39
190.24522 -49.43013 385.06097 9.7755856e-39
209.86461 -48.076637 388.52997 1.051387e-38
216.23915 -43.904625 368.60538 1.0698984e-38
227.47908 -41.143112 359.39023 1.0330201e-38
230.74802 -37.303204 339.58133 1.0329125e-38
250.32004 -36.302719 345.01462 1.199118e-38
266.24014 -34.705383 345.01462 1.5126571e-38
291.40515 -34.20253 356.42007 1.6967963e-38
-155.11729 -39.89959 184.30269 5.0678744e-39
-155.38434 -41.343155 195.14401 5.5288539e-39
-157.22054 -43.384323 209.35353 4.8842076e-39
-155.21645 -44.579102 220.03484 6.1735031e-39
-159.07773 -47.697411 240.93201 6.7273971e-39
-151.39946 -47.646687 246.43901 5.7143242e-39
-141.67569 -47.043369 249.28802 5.6217726e-39
-148.50256 -52.229187 283.72913 7.0976244e-39
-151.63513 -56.905659 317.10904 5.3459074e-39
-133.01692 -53.853588 308.04877 4.7019743e-39
-126.15427 -55.604816 326.71838 4.7030477e-39
-112.82581 -54.924374 331.74484 4.9796318e-39
-95.262001 -52.184227 324.26187 5.3491374e-39
-81.563637 -51.456757 329.21243 5.2558642e-39
-70.852264 -53.180229 350.6246 4.7945259e-39
-54.673336 -51.556919 350.6246 6.1738702e-39
-37.838501 -49.134678 345.01462 5.8987281e-39
-21.918428 -47.537342 345.01462 6.083841e-39
-6.2073364 -47.069683 353.4986 7.5578865e-39
10.104207 -45.433067 353.4986 5.437387e-39
27.226454 -45.281078 365.4816 1.2629009e-38
42.078468 -41.479843 347.797 9.5847554e-39
58.126923 -39.869629 347.797 1.5577111e-38
76.56456 -39.534721 359.39023 1.2262757e-38
95.472267 -38.841877 368.60538 9.4965394e-39
115.37512 -38.112572 378.30551 1.1248968e-38
127.35522 -34.833328 362.41031 1.37368e-38
138.36919 -31.818546 347.797 1.0786906e-38
150.82904 -29.494747 339.58133 9.9549448e-39
165.21716 -27.704422 336.92834 8.7618022e-39
175.36217 -25.352262 326.71838 1.0236918e-38
174.77649 -21.853001 299.49185 9.1309351e-39
187.31258 -20.325275 297.42639 9.4993617e-39
185.86198 -17.49999 274.69318 9.7770303e-39
207.68561 -16.985542 287.51218 9.7777436e-39
201.093 -14.231302 261.37473 1.4666975e-38
232.68448 -14.228462 285.60812 1.5951957e-38
-155.97057 -31.395281 184.30269 5.5288539e-39
-156.28781 -32.338593 195.14401 5.7125249e-39
-153.64195 -32.76963 203.42844 5.0685988e-39
-155.4294 -34.251244 218.91791 6.1742233e-39
-159.28934 -36.376823 239.59349 7.0961782e-39
-150.78854 -35.865318 243.65439 6.173873e-39
-142.82983 -35.540432 249.28802 5.0686016e-39
-129.79745 -33.993301 246.43901 4.7026932e-39
-121.98263 -33.818596 253.68723 4.794886e-39
-112.99419 -33.430687 259.80017 4.7948888e-39
-110.53967 -35.196232 283.72913 5.8108344e-39
-98.109413 -34.107025 285.60812 5.7171968e-39
-82.674278 -31.938669 278.23761 5.8093953e-39
-71.751686 -31.462429 285.60812 6.2660658e-39
-61.099964 -31.38731 297.42639 6.5451709e-39
-48.429489 -30.644318 303.71005 7.3745798e-39
-34.942707 -29.655903 308.04877 7.4667754e-39
-20.241053 -27.637478 301.58621 6.7292104e-39
-6.4500847 -26.613422 305.86401 7.9270333e-39
7.5912333 -24.844934 301.58621 1.1246446e-38
21.375381 -23.285826 299.49185 1.1981482e-38
35.194885 -21.89925 299.49185 1.0047533e-38
49.339664 -20.65612 301.58621 1.2814139e-38
62.417797 -18.994194 297.42639 1.0417771e-38
77.171951 -17.863575 301.58621 1.2999601e-38
90.472893 -16.352949 299.49185 7.3756644e-39
105.00423 -15.071033 301.58621 1.4199234e-38
115.75247 -13.302661 293.37979 1.2074388e-38
130.15836 -12.026193 295.38922 1.5491426e-38
141.87926 -10.514575 291.39749 1.3920839e-38
146.56458 -8.6400652 274.69318 7.5607549e-39
154.40213 -7.1408854 266.215 9.5912084e-39
158.95975 -5.6303339 253.68723 8.6724863e-39
171.66074 -4.4821873 255.18832 8.7628784e-39
178.23663 -3.2058792 247.85533 1.0421672e-38
182.43469 -1.9787617 238.26976 8.3962539e-39
185.34756 -0.83856773 228.18428 1.3919699e-38
-153.49071 -22.412081 180.44698 4.8827642e-39
-155.05257 -23.021521 192.53049 5.1611504e-39
-146.16859 -22.13015 192.53049 4.9767591e-39
-140.47606 -21.723684 196.92615 5.0703967e-39
-135.16078 -21.398216 202.47337 5.5328084e-39
-143.65903 -23.305632 230.62476 5.6221384e-39
-140.6736 -23.494272 243.65439 5.1622364e-39
-126.51505 -21.871931 238.26976 3.8725696e-39
-116.83918 -21.000851 240.93201 4.8885152e-39
-107.5665 -20.22435 245.03879 5.7193464e-39
-96.259636 -19.089882 245.03879 5.0732694e-39
-91.927528 -19.387436 264.58176 5.6235677e-39
-77.749573 -17.727455 258.24448 6.91288e-39
-63.463417 -15.958488 249.28802 7.2827415e-39
-55.658409 -15.809578 266.215 7.0979929e-39
-43.374409 -14.577066 266.215 7.3738581e-39
-31.510284 -13.511362 269.54266 6.6359274e-39
-19.484951 -12.497777 274.69318 9.0341011e-39
-6.6926346 -11.084806 271.23792 8.5724013e-39
5.6451163 -9.3024845 256.70731 1.4013398e-38
17.490404 -8.1139908 256.70731 1.4381097e-38
28.560095 -6.7253385 249.28802 9.95497e-39
40.281422 -5.6035852 250.73737 9.5847568e-39
51.851238 -4.4427314 250.73737 8.0203065e-39
63.777317 -3.3010707 252.20367 1.2537905e-38
75.414795 -2.1334281 252.20367 1.4566207e-38
89.077477 -0.9889183 258.24448 1.3554233e-38
98.130508 0.20068359 250.73737 1.4659495e-38
112.9099 1.4023008 258.24448 1.5767281e-38
122.66743 2.5520658 253.68723 1.7332429e-38
127.74286 3.5392075 240.93201 1.4749895e-38
138.86023 4.654664 240.93201 1.0138282e-38
147.54665 5.6750088 236.96059 9.5887084e-39
155.12633 6.6264439 231.86467 1.0420264e-38
159.9016 7.4206514 223.45506 9.4961471e-39
161.95081 8.038681 212.44743 8.6685304e-39
168.4832 8.8479176 208.34216 1.0141857e-38
-155.64955 -14.204553 181.96974 5.0678758e-39
-153.1642 -13.889527 189.15276 4.0551658e-39
-143.15839 -12.900631 187.50795 4.7026932e-39
-137.55077 -12.299904 191.67479 4.6104976e-39
-128.70628 -11.412497 191.67479 3.782176e-39
-122.07649 -10.715587 195.14401 4.7963195e-39
-106.1868 -9.2275658 183.51842 5.9026643e-39
-106.03175 -9.0728617 198.74115 5.2580138e-39
-103.19304 -8.6722755 211.40602 4.8874362e-39
-97.353943 -8.0075378 220.03484 4.6115724e-39
-88.12558 -7.0608788 222.30324 5.5295826e-39
-77.455658 -6.0007362 221.16322 6.1763911e-39
-68.34034 -5.0545664 224.6189 6.3597062e-39
-57.045322 -3.9528718 221.16322 7.0972726e-39
-47.094479 -2.944037 222.30324 8.4809302e-39
-37.454563 -1.9449019 225.79491 8.941181e-39
-27.829638 -0.92370653 231.86467 8.1114246e-39
-17.785023 0.15476346 239.59349 9.8624227e-39
-6.2899246 1.2038319 228.18428 1.4014843e-38
4.2120452 2.2249537 224.6189 1.3643537e-38
14.093606 3.1342897 215.63414 1.3829361e-38
23.936466 4.1120639 214.56134 9.2195742e-39
35.651253 5.4010086 226.98331 1.180035e-38
45.670551 6.3846798 224.6189 1.2353149e-38
54.942623 7.2730885 220.03484 9.4036053e-39
65.741043 8.3772793 222.30324 1.3461312e-38
77.546158 9.6045208 226.98331 1.2722659e-38
85.401939 10.329214 220.03484 1.797781e-38
95.555038 11.347922 220.03484 1.3274401e-38
105.18425 12.303856 218.91791 1.3461652e-38
111.95225 12.923776 212.44743 1.7791261e-38
124.76674 14.258552 217.81226 1.2912081e-38
131.55824 14.890937 212.44743 1.5577476e-38
138.67792 15.567764 208.34216 8.7582317e-39
146.20876 16.29616 205.36584 9.4968631e-39
152.82172 16.924583 201.52724 9.3131795e-39
156.36871 17.214088 194.26498 1.12475e-38
-152.56631 -5.6644878 177.47665 4.239557e-39
-149.37704 -5.0076761 183.51842 3.5974246e-39
-134.49634 -3.9721012 175.3123 4.9796346e-39
-138.43817 -3.4554214 191.67479 3.9662029e-39
-126.16269 -2.5013132 186.69623 4.8874362e-39
-115.00454 -1.602273 182.7408 4.703768e-39
-107.03645 -0.75944519 183.51842 5.3502122e-39
-103.06025 0.094209671 191.67479 4.8899571e-39
-94.215767 0.98161793 191.67479 6.4526039e-39
-86.558723 1.8942842 194.26498 7.0050756e-39
-77.957146 2.806325 195.14401 6.6370148e-39
-71.985947 3.8672862 203.42844 6.0838438e-39
-63.533554 4.8781414 206.34846 7.6511695e-39
-53.476326 5.7781916 204.39255 8.2969046e-39
-44.716328 6.8214674 207.34052 9.7723878e-39
-34.790417 7.7072964 205.36584 1.0785098e-38
-25.447269 8.6995163 206.34846 9.1252122e-39
-16.014284 9.7012777 207.34052 1.0787277e-38
-6.4469357 10.661214 207.34052 1.4472567e-38
3.1115918 11.455922 204.39255 1.4750261e-38
12.448611 12.285757 202.47337 1.5024288e-38
21.523438 13.039507 199.66124 1.4471851e-38
30.223049 13.71 196.03104 1.7328474e-38
39.102169 14.551434 195.14401 2.1475482e-38
48.734344 15.667586 197.82948 1.0045734e-38
58.897644 16.893459 201.52724 9.5876449e-39
68.196754 17.826483 201.52724 1.1337197e-38
78.924347 19.116831 205.36584 1.5214122e-38
86.01445 19.510193 199.66124 1.4846054e-38
90.347061 19.35907 189.15276 1.1987964e-38
99.929817 20.413872 190.82668 1.2904151e-38
104.66659 20.48171 183.51842 1.4381813e-38
115.05045 21.700729 186.69623 1.4937535e-38
122.62517 22.371397 185.09369 1.3093224e-38
132.27997 23.429447 186.69623 9.2159588e-39
136.26227 23.480625 180.44698 9.9567609e-39
129.68796 21.766052 161.5237 1.0141156e-38
-128.0119 2.9571075 156.82483 4.6115724e-39
-123.52515 3.7653217 160.32278 5.5321007e-39
-121.1851 4.6997595 167.15825 4.242794e-39
-109.98401 5.309041 162.13094 4.6104863e-39
-102.89901 6.0825348 162.74275 5.44061e-39
-92.174194 6.6114559 157.39719 5.717194e-39
-95.658691 8.2426472 176.7493 5.8076086e-39
-88.623291 9.1737461 178.94949 6.3604279e-39
-81.41053 10.128316 181.20515 6.1753149e-39
-72.419571 10.875859 179.69511 7.8355636e-39
-64.127869 11.707805 179.69511 9.4032522e-39
-56.08025 12.592218 180.44698 7.282387e-39
-48.392677 13.598335 182.7408 7.5589711e-39
-38.907696 14.086254 178.21004 1.0138654e-38
-31.528198 15.290426 182.7408 9.4940087e-39
-24.347315 16.925365 191.67479 1.1152437e-38
-14.736757 17.054785 183.51842 1.4474379e-38
-6.1218805 17.604774 180.44698 1.0232628e-38
2.2081778 18.211601 178.21004 1.8529549e-38
10.146962 18.354084 171.82004 9.5833022e-39
18.78915 20.027256 179.69511 1.3460249e-38
27.183701 20.94648 180.44698 1.7239174e-38
35.10088 21.511881 178.21004 1.6314689e-38
42.176392 21.709005 173.20012 1.0785098e-38
52.581982 23.650669 181.96974 1.355169e-38
59.770405 23.987089 178.21004 1.3554202e-38
67.993576 24.812159 178.21004 1.5119018e-38
73.291481 24.619879 171.1382 1.5765115e-38
80.877327 25.311764 170.46178 1.3186888e-38
89.085197 26.204536 171.1382 1.6228276e-38
97.35849 27.104424 171.82004 1.087694e-38
102.88711 27.248547 167.80867 1.5487826e-38
113.21513 28.695395 171.82004 1.1618131e-38
121.14346 29.490879 171.82004 8.9433657e-39
119.29967 27.948078 158.55452 1.7238813e-38
126.61588 28.682148 158.55452 1.2815555e-38
-129.72379 9.0400915 149.74593 5.0707456e-39
-121.52212 9.6330357 148.20216 4.3342624e-39
-117.99622 10.610884 152.39162 4.2417122e-39
-115.12059 11.730941 157.97372 4.6104948e-39
-107.42852 12.41684 157.39719 4.3349869e-39
-101.68669 13.340297 159.72899 4.6090626e-39
-92.902908 13.874262 157.39719 6.728839e-39
-86.288193 14.710346 158.55452 6.4515333e-39
-80.497673 15.733637 161.5237 6.8214088e-39
-74.781113 16.860336 165.23689 9.03482e-39
-67.424477 17.693132 165.87242 7.9277564e-39
-59.532013 18.39035 165.23689 7.7440812e-39
-52.540104 19.378094 167.15825 8.7575199e-39
-45.383678 20.38908 169.12482 9.4028977e-39
-37.737518 21.255442 169.79066 9.402162e-39
-29.649693 21.869331 168.46417 8.5731286e-39
-22.361805 23.100462 171.82004 1.0327012e-38
-14.233482 23.61371 169.79066 8.5734747e-39
-6.3292818 24.209179 168.46417 1.6595613e-38
1.4722896 24.324017 163.98033 1.4842077e-38
8.7993422 24.164408 157.97372 8.5713279e-39
16.44635 25.55094 162.13094 1.6776387e-38
24.338074 26.805428 165.23689 1.7054771e-38
31.408817 27.052195 162.13094 1.6315415e-38
38.484215 27.492752 160.32278 8.4784092e-39
46.703648 28.769762 163.35919 1.3183622e-38
54.636532 29.751469 164.60622 1.3549546e-38
62.231983 30.513554 164.60622 8.7571639e-39
68.814987 30.80533 162.13094 8.8507973e-39
73.881081 30.523218 156.82483 1.7243865e-38
81.984573 31.593941 158.55452 1.6040295e-38
88.982834 32.209591 157.97372 1.3920146e-38
93.60257 32.003151 153.47626 1.2079081e-38
98.631813 32.0298 150.2677 1.6412312e-38
108.14228 33.54364 154.02438 1.733028e-38
111.36154 33.07547 148.7132 1.5760795e-38
119.02728 33.998447 149.74593 9.8634905e-39
-119.02417 14.582714 136.91057 3.6896161e-39
-116.48394 15.715482 141.39943 3.6878252e-39
-110.70164 16.47818 142.33276 4.2417178e-39
-106.6557 17.542416 145.69875 4.4250273e-39
-102.77806 18.722994 149.74593 6.269314e-39
-95.868301 19.416283 149.74593 5.9919999e-39
-89.92128 20.321247 151.3222 6.7292132e-39
-82.048805 20.802856 149.74593 7.8355579e-39
-75.139053 21.496143 149.74593 7.9277564e-39
-68.973824 22.423004 151.3222 6.913959e-39
-61.098721 22.803539 149.22778 8.4809302e-39
-55.211346 23.908062 151.85503 9.3114097e-39
-49.673962 25.324482 156.25662 1.032521e-38
-42.627289 26.142632 156.82483 1.0418143e-38
-35.950172 27.26528 159.13959 1.2078369e-38
-28.154503 27.594755 156.82483 8.5734915e-39
-20.582365 27.914783 154.57645 1.5026482e-38
-13.168913 28.126377 151.85503 1.576259e-38
-6.1012697 28.627825 150.79311 1.4660193e-38
0.87385917 29.02154 149.22778 7.5596927e-39
7.5166788 28.339577 142.33276 1.308927e-38
14.318392 29.584373 145.20818 9.4950933e-39
21.400585 30.880501 148.20216 9.6794902e-39
28.873518 32.344688 151.85503 9.6787685e-39
34.745193 31.92367 146.6899 9.8598863e-39
42.326721 33.282036 149.74593 9.3110538e-39
49.399319 34.093704 150.2677 1.1524101e-38
52.990562 32.62928 140.93735 7.4703557e-39
62.846439 35.239536 149.22778 8.2054139e-39
69.041534 35.561275 147.69461 1.0050065e-38
74.621674 35.634884 145.20818 1.3091442e-38
80.274574 35.824677 143.2785 1.327798e-38
88.31134 37.10437 145.69875 1.5855524e-38
92.896568 36.906139 142.33276 1.3183635e-38
97.274742 36.716862 139.1188 1.5765856e-38
101.77272 36.651566 136.47731 1.5668603e-38
110.46178 38.128029 139.56902 1.4936091e-38
-116.63246 20.382545 133.51959 3.4130334e-39
-111.888 21.264046 135.19382 4.6094186e-39
-108.07616 22.381077 138.22702 4.8867355e-39
-102.70956 23.244543 139.56902 5.5306672e-39
-97.23774 24.124935 140.93735 5.7150585e-39
-91.347824 24.940449 141.86456 5.6235817e-39
-83.389099 25.183056 139.56902 6.1764023e-39
-78.522194 26.340698 142.33276 7.4660538e-39
-71.466278 26.822617 141.39943 6.0842067e-39
-65.163506 27.567644 141.86456 7.3749455e-39
-58.417038 28.131907 141.39943 8.2965417e-39
-52.25145 28.976564 142.33276 7.0972726e-39
-45.843311 29.733658 142.80406 8.2054447e-39
-39.532238 30.597441 143.75609 8.6642424e-39
-32.89888 31.262997 143.75609 7.8337629e-39
-25.980709 31.612431 142.33276 1.0968781e-38
-19.340944 32.165237 141.86456 1.3645341e-38
-12.645403 32.501305 140.47827 1.5395249e-38
-6.0794516 32.83086 139.1188 1.7234131e-38
0.38094449 32.839348 136.47731 1.2265303e-38
6.5752678 32.644753 133.1075 6.6344826e-39
12.975935 34.103062 136.47731 1.8527754e-38
19.543098 35.293358 138.67148 1.557892e-38
25.644165 35.47905 136.91057 1.6131737e-38
31.961651 36.112915 136.91057 1.2810172e-38
37.720093 36.172607 134.77133 9.7702383e-39
44.73069 37.499683 137.34659 1.5672215e-38
50.157646 37.420528 134.77133 1.5671484e-38
57.757866 39.019981 138.22702 1.0786554e-38
64.734505 40.044991 139.56902 1.0508158e-38
69.231041 39.53952 135.61896 1.3738239e-38
75.48893 40.167404 135.61896 1.4197436e-38
79.097229 39.431313 131.08458 1.5949155e-38
84.646515 39.79628 130.29253 9.5858498e-39
88.832855 39.562828 127.59416 1.4475466e-38
94.448425 40.03511 127.21778 1.1431557e-38
101.48664 41.109165 128.7368 1.9360017e-38
-108.34423 26.505249 130.29253 5.1622392e-39
-102.6498 27.190624 130.68736 5.7150585e-39
-97.528816 28.050674 131.88632 6.3604279e-39
-88.117737 27.646721 127.21778 6.4526235e-39
-85.627014 29.361671 132.29088 6.5455408e-39
-79.271858 29.882481 131.88632 7.7440798e-39
-73.418373 30.586622 132.29088 6.6384511e-39
-67.962479 31.488873 133.51959 7.006163e-39
-61.209728 31.811573 132.29088 7.1909102e-39
-55.640446 32.725201 133.51959 7.4667754e-39
-49.159554 33.138172 132.69794 1.0231924e-38
-43.460701 34.066998 133.93425 8.9422853e-39
-37.908012 35.2342 136.04678 7.7437323e-39
-31.956467 36.206715 137.34659 1.4381099e-38
-24.094343 34.845104 129.90009 1.3458418e-38
-18.038479 35.340065 129.50999 1.1985831e-38
-12.062478 35.939663 129.50999 1.6780354e-38
-6.0864763 36.539265 129.50999 1.437893e-38
-0.041779041 36.161526 126.10184 1.1244264e-38
5.692934 35.803158 122.86845 7.1865872e-39
11.703339 37.770931 127.59416 1.4194188e-38
17.635717 38.475494 127.97279 1.2723036e-38
23.478537 38.952393 127.59416 1.5208329e-38
29.129776 39.195236 126.47163 9.766976e-39
34.040634 38.647415 122.86845 1.234665e-38
41.255993 40.845428 127.97279 1.5580361e-38
45.379711 39.785118 122.86845 1.3458757e-38
52.619961 41.659538 126.84361 1.1889648e-38
56.564758 40.806564 122.51939 1.465804e-38
64.144585 42.708435 126.47163 1.6408324e-38
68.433563 42.301559 123.57257 1.5211588e-38
73.525055 42.50827 122.51939 1.1431918e-38
78.745277 42.832138 121.82719 1.447148e-38
84.136169 43.273926 121.48402 1.3736811e-38
87.819138 42.870277 118.80669 1.7610823e-38
95.609756 44.524231 121.82719 2.0556012e-38
-102.59716 30.664524 122.86845 6.0849228e-39
-96.085022 30.968683 121.82719 6.268598e-39
-89.941254 31.355564 121.14278 5.1640455e-39
-84.842033 32.096745 121.82719 5.8101338e-39
-79.68486 32.846344 122.51939 7.8344817e-39
-76.039543 34.290321 125.73419 6.452992e-39
-70.23777 34.87244 125.73419 7.4667782e-39
-62.724564 34.54805 122.51939 6.8224906e-39
-56.902378 35.015812 122.17232 8.7578954e-39
-51.881176 35.98925 123.57257 7.7440798e-39
-46.319031 36.666424 123.92767 9.4047039e-39
-40.724819 37.347496 124.28481 9.1255765e-39
-34.668587 37.597855 123.21951 1.2075855e-38
-29.346813 38.609585 124.64401 1.2261317e-38
-23.977972 39.761242 126.47163 1.3551701e-38
-17.440454 38.975212 122.17232 1.8624259e-38
-11.642778 39.097805 120.80344 1.4753844e-38
-5.9501762 39.109344 119.13488 1.354774e-38
-0.41268468 39.120575 117.5118 8.6631382e-39
5.002862 39.556835 117.19247 7.5600585e-39
10.45372 40.318539 117.83286 1.5490709e-38
15.964478 41.088604 118.48029 1.9175634e-38
21.225756 41.184555 117.19247 1.8896901e-38
26.765265 41.955151 117.83286 1.6040989e-38
31.489588 41.480671 115.00488 9.9538882e-39
37.259739 42.58086 116.559 1.5580005e-38
42.966244 43.472984 117.5118 1.4472923e-38
48.640053 44.258224 118.15569 1.511579e-38
54.808693 45.427551 119.79675 1.5211214e-38
58.171494 44.260921 115.31238 1.5763295e-38
64.996292 45.899319 118.15569 1.6225363e-38
69.530144 45.818699 116.559 1.521338e-38
74.908546 46.358341 116.559 1.6408681e-38
79.045662 46.149609 114.69901 1.2905994e-38
83.476791 46.189262 113.49165 1.2170576e-38
87.81559 46.228092 112.30945 2.2399599e-38
-98.218513 32.354607 111.15162 5.1633224e-39
-94.337524 33.298317 112.60268 4.8863796e-39
-89.622742 33.997169 113.19377 6.0845584e-39
-85.089302 34.795204 114.09214 5.992367e-39
-79.82473 35.323425 114.09214 6.2685896e-39
-76.014122 36.528095 116.24482 7.8370181e-39
-70.257988 36.867531 115.62152 7.7433679e-39
-64.922852 37.402832 115.62152 8.5738531e-39
-59.922409 38.142651 116.24482 9.0344585e-39
-54.712719 38.785378 116.559 7.9281081e-39
-49.334316 39.325016 116.559 7.6511807e-39
-44.463634 40.300339 117.83286 8.296906e-39
-39.026451 40.845875 117.83286 1.0878744e-38
-33.490936 41.278629 117.5118 1.1246446e-38
-27.738985 41.371765 116.24482 1.5395616e-38
-22.442312 42.023216 116.559 1.5491413e-38
-16.64986 41.662056 114.09214 1.4840634e-38
-11.16833 41.531055 112.30945 1.5488179e-38
-5.7916803 41.08802 109.73747 1.1243917e-38
-0.67155528 40.868149 107.81707 7.0029148e-39
4.3497086 42.428017 110.58161 8.0163507e-39
9.3817129 42.50404 109.45895 1.4105242e-38
14.617017 43.675926 111.15162 1.2904537e-38
19.92555 44.650848 112.30945 1.7513969e-38
25.049141 45.053486 112.01774 1.4193455e-38
29.516273 44.418377 109.18185 7.738675e-39
34.312653 44.585243 108.35886 1.6960406e-38
39.128616 44.861485 107.81707 1.5856946e-38
44.630264 45.934834 109.18185 1.6963294e-38
48.962498 45.745457 107.5482 1.5483122e-38
54.838757 47.064957 109.45895 1.5120797e-38
58.607887 46.509331 107.01446 1.6591263e-38
62.503632 46.202263 105.18739 1.7792354e-38
68.978745 47.856487 107.81707 1.3369848e-38
72.381432 47.291592 105.44456 1.2168769e-38
77.246979 47.779774 105.44456 1.2905967e-38
82.898811 48.744678 106.48599 1.7701575e-38
-93.068001 35.38588 104.93146 4.7938238e-39
-88.893234 36.135448 105.70301 6.3611467e-39
-83.38427 36.357491 104.93146 6.9146891e-39
-77.761261 36.488186 103.92007 6.4526263e-39
-74.073143 37.51165 105.44456 7.0987146e-39
-71.189468 39.050076 108.35886 6.6373805e-39
-65.505966 39.158203 107.28067 7.9281333e-39
-60.870975 39.853165 107.81707 7.7422917e-39
-56.337231 40.657261 108.63181 8.0203191e-39
-50.655155 40.648254 107.28067 9.0351857e-39
-47.315849 42.519962 110.86588 1.02305e-38
-42.782173 43.593575 112.30945 1.0507436e-38
-37.186462 43.65876 111.15162 7.190906e-39
-31.531319 43.500675 109.45895 1.0877292e-38
-27.081169 44.919518 111.72753 1.290705e-38
-21.308895 44.289391 108.90613 1.6778565e-38
-15.642229 43.264061 105.18739 1.7423923e-38
-10.628447 43.223934 103.92007 1.2998176e-38
-5.9970446 44.564125 105.96272 1.207369e-38
-0.91462541 42.644806 100.29495 1.2073686e-38
3.7541332 44.559937 103.67026 1.4287827e-38
8.596426 45.477188 104.67677 1.6777463e-38
13.426544 45.961815 104.67677 1.6223582e-38
18.648621 47.601826 107.28067 1.7423206e-38
23.136869 47.045258 104.93146 1.6041349e-38
27.552063 46.735092 103.17423 1.0691809e-38
31.960449 46.654694 101.95467 1.3827554e-38
37.15654 47.804802 103.42165 1.5025036e-38
41.554123 47.824867 102.43902 1.5949153e-38
46.385227 48.414131 102.68292 1.5675817e-38
50.326237 48.088058 100.9996 1.4657684e-38
56.116776 49.601124 103.17423 1.6316502e-38
60.877563 50.078796 103.17423 1.7700493e-38
64.307564 49.490868 100.9996 1.6680943e-38
67.151115 48.592865 98.238785 1.6595599e-38
72.64283 49.727337 99.600067 1.3090371e-38
77.238693 50.188461 99.600067 1.14265e-38
-92.171738 39.648933 103.42165 4.7009065e-39
-86.334373 39.652302 102.19627 5.254802e-39
-80.246155 39.470722 100.52874 6.5448191e-39
-75.789932 40.029453 100.76362 5.8998183e-39
-71.312836 40.590801 100.9996 9.3103195e-39
-68.480942 42.144081 103.67026 9.8642317e-39
-63.380539 42.420113 103.17423 8.4802071e-39
-58.619755 42.897785 103.17423 8.7600422e-39
-54.129921 43.583988 103.67026 8.5749349e-39
-49.47118 44.170135 103.92007 1.2535371e-38
-44.562572 44.543926 103.67026 9.4950933e-39
-40.293243 45.571629 104.93146 9.2188581e-39
-35.26759 45.8344 104.42331 9.4018075e-39
-30.211555 45.983829 103.67026 1.1152457e-38
-24.965717 45.694897 101.95467 1.3369108e-38
-20.100912 45.841801 101.23669 1.4658051e-38
-15.221533 45.773262 100.06225 1.4470057e-38
-10.574011 46.129494 99.83062 1.2075859e-38
-5.9479542 46.484085 99.600067 1.2165881e-38
-1.1983497 45.071564 95.624893 7.5553739e-39
3.2369623 46.972404 98.688393 1.3828277e-38
7.8273292 47.75716 99.370575 1.6407956e-38
12.458494 48.440453 99.83062 1.6040634e-38
17.031359 48.789707 99.600067 1.5764752e-38
21.760666 49.594444 100.29495 1.7605058e-38
25.635345 48.48035 97.132492 1.1426111e-38
29.6887 48.170605 95.624893 7.1905431e-39
34.312748 48.938862 96.265244 1.5947333e-38
39.582466 50.512047 98.463074 1.5300533e-38
43.656048 50.392647 97.351753 1.6503403e-38
46.84679 49.393883 94.576378 1.419744e-38
51.533432 50.161758 95.202713 1.6592348e-38
56.522663 51.167286 96.265244 1.4931742e-38
59.070545 49.940842 93.1465 1.4013387e-38
63.50037 50.481117 93.348114 1.613243e-38
67.526253 50.693848 92.945747 1.3737182e-38
72.87677 51.907246 94.369423 1.3735728e-38
-86.26461 41.43985 96.480598 5.4388401e-39
-78.375046 40.178711 92.546844 6.7310195e-39
-74.767883 40.958763 93.348114 6.177124e-39
-71.097725 41.752434 94.163383 7.3756644e-39
-68.616028 43.323502 96.696922 8.75788e-39
-64.005013 43.67326 96.480598 1.0049326e-38
-59.139408 43.825809 95.837395 6.731374e-39
-55.621273 44.969032 97.351753 8.8515175e-39
-52.494713 46.576271 99.83062 9.1248716e-39
-47.88821 47.038464 99.83062 1.0047177e-38
-43.281708 47.500656 99.83062 9.4032536e-39
-38.580116 47.852077 99.600067 8.6649683e-39
-34.06871 48.425037 99.83062 1.105989e-38
-29.096504 48.327877 98.688393 1.3458771e-38
-24.35833 48.452156 98.015518 1.3829381e-38
-19.485806 48.140079 96.480598 1.6133535e-38
-14.916994 48.262852 95.837395 1.3917951e-38
-10.408696 48.383995 95.202713 9.952812e-39
-5.8138599 47.667278 92.945747 7.5535592e-39
-1.4652283 47.382767 91.564392 6.0809585e-39
2.7643323 48.632725 93.1465 1.059926e-38
7.0330343 48.748104 92.546844 1.3178954e-38
11.360479 49.495216 93.1465 1.336695e-38
15.715641 50.143059 93.550606 1.4842088e-38
19.881546 50.141117 92.745865 1.4563342e-38
24.207819 50.679493 92.945747 1.0964795e-38
27.788128 49.716877 90.412636 1.0595298e-38
32.209183 50.559444 91.177223 1.5854046e-38
36.632877 51.306988 91.759209 1.4749532e-38
40.543167 51.295258 90.984871 1.345877e-38
43.954388 50.752834 89.289497 1.8528812e-38
48.359329 51.486012 89.847557 1.5577824e-38
52.194588 51.579613 89.289497 1.4473293e-38
56.877605 52.536861 90.223488 1.5028992e-38
61.534817 53.401451 90.984871 1.4104512e-38
64.812912 53.039402 89.660767 1.5948801e-38
69.367195 53.790001 90.223488 1.3647488e-38
-87.112244 46.098026 96.914223 6.819611e-39
-76.268066 43.062973 89.660767 6.2685868e-39
-72.756668 43.842674 90.412636 6.268235e-39
-68.140465 43.984631 89.847557 5.3466459e-39
-65.265213 45.24902 91.564392 8.5752866e-39
-61.721901 46.162994 92.546844 8.0203191e-39
-58.101734 47.096798 93.550606 9.4039879e-39
-54.030266 47.737015 93.958229 8.6660403e-39
-49.132286 47.652924 92.945747 8.0199688e-39
-45.463696 48.71315 94.163383 9.031569e-39
-41.406296 49.473167 94.784241 6.0849144e-39
-36.688141 49.477032 93.958229 7.6507981e-39
-32.126297 49.587933 93.348114 1.3827575e-38
-28.217852 50.678268 94.576378 1.3185456e-38
-23.06879 49.593529 91.759209 1.4566957e-38
-18.834728 50.018353 91.759209 1.345735e-38
-13.902683 48.38427 88.013931 1.8346615e-38
-10.177791 50.121506 90.412636 1.493102e-38
-5.7633362 49.099037 87.834679 9.0294236e-39
-1.6847963 49.205048 87.30127 7.8355579e-39
2.3399978 50.739044 89.289497 1.603737e-38
6.4683146 51.25856 89.474747 1.6040637e-38
10.786063 52.879601 91.564392 1.437893e-38
14.802179 52.413277 90.035133 1.5760443e-38
18.854259 52.501301 89.474747 1.4011592e-38
23.025492 53.025558 89.660767 1.3456959e-38
25.85191 50.600319 84.895332 1.1247198e-38
30.316822 52.017323 86.60006 1.1245357e-38
34.505627 52.735947 87.124908 1.4935003e-38
38.893459 53.681553 88.013931 1.5763683e-38
42.304825 53.220135 86.60006 1.2631168e-38
46.125622 53.40659 86.253654 1.2722656e-38
50.201042 53.913754 86.426506 1.0971668e-38
53.173531 53.246811 84.728539 1.3459141e-38
57.190624 53.744678 84.895332 1.2536837e-38
62.647163 55.559517 87.124908 1.2076938e-38
65.898911 55.292671 86.08149 1.2818455e-38
-74.599403 45.958096 87.30127 6.3629558e-39
-69.984131 45.989891 86.60006 9.1288611e-39
-65.988136 46.390827 86.60006 7.4646118e-39
-62.252182 46.980438 86.949249 8.298348e-39
-59.874897 48.658314 89.289497 8.3905408e-39
-56.735928 49.898174 90.79332 7.4685845e-39
-51.859791 49.690849 89.660767 7.6511695e-39
-48.250099 50.632282 90.602577 8.8522616e-39
-44.16745 51.159225 90.79332 8.940465e-39
-39.623238 51.148849 90.035133 1.1337916e-38
-35.154293 51.138645 89.289497 9.493287e-39
-30.487812 50.712082 87.834679 1.1246796e-38
-26.792797 51.751133 88.921295 1.1801055e-38
-22.180803 51.10902 87.124908 1.8802536e-38
-17.994968 51.099468 86.426506 1.2628655e-38
-13.908329 51.191833 85.910019 1.2719047e-38
-9.8214455 51.080803 85.062775 9.1245017e-39
-5.5930891 49.615273 81.990166 7.4653349e-39
-1.9363136 51.462425 84.396927 6.173873e-39
1.9590864 51.751884 84.232086 1.4840285e-38
5.8921995 52.864624 85.399658 1.6131021e-38
9.7325573 52.531834 84.232086 1.631506e-38
13.619292 52.92181 84.232086 1.5668601e-38
17.624186 53.731567 84.895332 1.6223583e-38
21.466852 53.912357 84.562408 1.3458418e-38
24.589209 52.452591 81.679596 7.8305175e-39
29.010895 54.164341 83.741417 9.9553582e-39
33.052967 54.871681 84.232086 1.0416334e-38
36.606628 54.727211 83.417465 1.1615949e-38
40.751728 55.543152 84.067894 1.4654451e-38
44.548916 55.823544 83.904335 1.2721552e-38
47.034252 54.515038 81.371376 1.1153862e-38
50.337685 54.378761 80.610893 8.4801931e-39
55.749363 56.548847 83.256424 1.1154969e-38
59.59108 56.934303 83.256424 1.0141179e-38
64.267487 58.104961 84.396927 1.1708143e-38
-73.315399 48.897636 85.399658 5.8998155e-39
-68.253929 48.524315 84.067894 7.0998048e-39
-63.601654 48.348049 83.096008 8.2047062e-39
-58.938683 48.084236 81.990166 6.3611495e-39
-55.155403 48.463829 81.990166 8.1143084e-39
-53.835449 51.07682 85.73922 9.3099678e-39
-50.511517 52.095188 86.7743 7.6529926e-39
-46.606281 52.602768 86.949249 7.6515324e-39
-42.233414 52.58128 86.253654 8.3887373e-39
-37.849899 52.456055 85.399658 1.1524457e-38
-34.126873 53.167282 85.910019 1.2537916e-38
-29.776932 52.932365 84.895332 1.1800336e-38
-25.803879 53.220646 84.728539 1.4661665e-38
-21.195927 52.078197 82.303108 1.6316883e-38
-17.210125 51.963402 81.525192 1.4477271e-38
-13.4785 52.439976 81.679596 1.1614503e-38
-9.5723591 52.224674 80.761848 1.5486719e-38
-5.5444613 50.699711 77.84626 1.0234819e-38
-2.0259142 51.90332 79.131798 1.0509597e-38
1.5904298 54.36446 82.303108 1.1152454e-38
5.328773 53.619896 80.610893 1.5025022e-38
9.1226883 54.605495 81.525192 1.4566572e-38
12.768057 54.366314 80.610893 1.3090728e-38
16.700035 55.57048 81.834587 1.3364429e-38
20.510317 56.055725 81.990166 9.9517218e-39
23.689346 54.870567 79.716873 6.2657127e-39
27.27614 55.036175 79.423256 6.1731569e-39
31.098986 55.711685 79.864494 1.2995296e-38
34.844082 56.185486 80.012665 1.6501262e-38
38.469383 56.451191 79.864494 1.4568365e-38
41.86301 56.403149 79.27726 1.1798529e-38
45.521114 56.77018 79.27726 9.1245017e-39
48.254044 56.004765 77.705994 6.5462428e-39
52.837322 57.50425 79.27726 8.2983228e-39
56.694672 58.084831 79.569794 7.6529561e-39
59.942341 58.024994 78.986862 1.1893599e-38
-71.228813 51.117458 82.618446 5.8987295e-39
-65.21138 49.87566 80.012665 5.1626035e-39
-60.698578 49.601917 78.986862 5.3480836e-39
-57.715584 50.522808 79.864494 7.9266774e-39
-55.205872 51.950813 81.525192 8.6678339e-39
-51.444046 52.328255 81.525192 8.5738447e-39
-48.161049 53.208618 82.303108 1.1247878e-38
-44.363327 53.589661 82.303108 8.021031e-39
-40.401852 53.765491 81.990166 8.5727727e-39
-36.918324 54.55999 82.618446 1.179925e-38
-32.568596 54.113171 81.371376 1.4287463e-38
-28.579304 54.081741 80.761848 1.4013395e-38
-24.598961 53.950497 80.012665 1.6134988e-38
-20.564592 53.526478 78.842461 1.3643534e-38
-16.820589 53.597546 78.412415 1.3644253e-38
-13.089016 53.570969 77.84626 1.4012344e-38
-9.410944 53.544769 77.288223 8.4758869e-39
-5.5698414 52.127644 74.743202 7.3717001e-39
-2.2612319 54.066635 77.012192 8.4784092e-39
1.2748523 55.211926 78.128311 1.3181828e-38
4.8842587 55.674503 78.270103 1.2169488e-38
8.474205 55.834209 77.98703 1.3459871e-38
11.986996 55.691727 77.288223 1.3922642e-38
15.576753 56.150181 77.426979 1.3456623e-38
19.089911 56.306473 77.149963 1.1892196e-38
22.47122 56.16132 76.466003 9.9564232e-39
25.875267 56.21632 76.061424 8.5695245e-39
29.818611 57.480854 77.288223 1.3277297e-38
33.496033 58.046738 77.566238 1.2997437e-38
35.816814 56.280159 74.743202 1.3088919e-38
38.701042 55.756516 73.595268 1.060427e-38
43.641525 58.285435 76.466003 9.217405e-39
47.090843 58.535667 76.330666 7.7426406e-39
51.304012 59.734863 77.426979 7.5586207e-39
54.782875 59.985638 77.288223 6.9146835e-39
58.651085 60.669647 77.705994 8.6656872e-39
-60.87841 49.866993 74.485023 9.0323089e-39
-59.586033 52.008327 77.149963 7.7455259e-39
-55.921574 52.272007 77.012192 6.5459262e-39
-53.264202 53.488186 78.270103 7.4671328e-39
-50.323654 54.543484 79.27726 7.2813136e-39
-47.121628 55.419899 80.012665 7.4664251e-39
-43.175365 55.481529 79.569794 9.9557071e-39
-39.349339 55.644588 79.27726 1.1983637e-38
-35.34341 55.501503 78.555244 1.3181115e-38
-31.106483 54.865814 77.149963 1.3182558e-38
-27.546539 55.223 77.149963 1.2443912e-38
-23.294437 54.127747 75.13385 1.4108845e-38
-20.103172 55.148132 76.061424 1.4010535e-38
-16.230089 54.444042 74.613892 8.5742104e-39
-12.893697 55.171299 75.13385 1.0505644e-38
-9.123045 54.105251 73.220421 6.3575482e-39
-5.7165232 54.259998 72.972633 5.9887629e-39
-2.3907118 55.063698 73.595268 1.2810521e-38
0.97925663 56.366306 74.872963 1.6225391e-38
4.4374957 56.811581 75.003181 1.4010888e-38
7.9077845 57.258408 75.13385 1.3457361e-38
11.328556 57.306747 74.743202 1.7327406e-38
14.713942 57.354584 74.356598 1.3181834e-38
18.17201 57.798492 74.485023 1.4107055e-38
21.576038 58.043091 74.356598 8.2932991e-39
24.112766 56.067318 71.402031 8.3858521e-39
28.085236 57.932526 73.344948 1.0694006e-38
32.227974 59.797546 75.264969 1.3366972e-38
35.470772 59.729046 74.743202 1.2351e-38
38.299225 59.051662 73.469894 1.4382552e-38
41.890675 59.696907 73.847305 1.2814488e-38
45.079491 59.73196 73.469894 1.2075835e-38
48.864555 60.588192 74.101082 8.2958144e-39
53.065754 61.888298 75.264969 7.8352118e-39
56.350758 62.020279 75.003181 5.8065338e-39
-61.555145 53.581593 74.872963 5.3477137e-39
-58.845798 54.591679 75.794075 6.7295915e-39
-56.278122 55.825592 77.012192 5.8076198e-39
-53.021976 56.484737 77.426979 6.2689623e-39
-51.184105 58.741493 80.012665 8.0203065e-39
-47.032581 58.568623 79.27726 7.9295739e-39
-43.290306 58.827522 79.131798 1.0509237e-38
-38.657185 57.814812 77.288223 1.115425e-38
-34.757015 57.656006 76.60183 1.3001023e-38
-31.342587 58.217468 76.874916 1.3736808e-38
-27.316986 57.648537 75.661102 1.3278365e-38
-23.642288 57.594658 75.13385 1.3738992e-38
-19.673195 56.659283 73.469894 1.2815931e-38
-16.251118 56.902496 73.344948 1.3735005e-38
-12.866751 57.242065 73.344948 1.2538254e-38
-9.2820072 56.618729 72.118439 8.4776819e-39
-5.9683952 57.048019 72.239243 7.6526002e-39
-2.6959724 58.063278 73.096321 1.1339344e-38
0.66447878 58.800343 73.595268 1.1985799e-38
4.07654 59.752872 74.356598 1.1523735e-38
7.5776253 60.937649 75.396553 8.3883856e-39
10.938639 60.44138 74.356598 1.0417066e-38
14.328898 60.576748 74.101082 1.3735027e-38
17.56694 60.195816 73.220421 1.3271869e-38
21.039991 60.844711 73.595268 8.2904054e-39
23.06711 57.36747 69.002922 1.24479e-38
27.282059 60.190876 71.998047 7.2812968e-39
31.72649 62.940975 74.872963 1.585299e-38
34.90012 62.742977 74.228622 1.6316858e-38
37.719082 62.019184 72.972633 1.1799601e-38
41.283138 62.675179 73.344948 1.2995642e-38
44.382587 62.588966 72.849373 1.0139024e-38
48.759937 64.339096 74.485023 7.5593368e-39
52.28289 64.795853 74.613892 4.9782123e-39
56.096725 65.595245 75.13385 5.0714967e-39
