# .PCD v0.7 - Point Cloud Data file format
VERSION 0.7
FIELDS x y z rgb
SIZE 4 4 4 4
TYPE F F F F
COUNT 1 1 1 1
WIDTH 1012
HEIGHT 1
VIEWPOINT 0 0 0 1 0 0 0
POINTS 1012
DATA ascii
79.727234 -152.07132 195.14401 2.3418047e-38
99.024231 -142.40576 182.7408 2.3509879e-38
110.45526 -139.45129 178.94949 2.3509883e-38
116.53889 -141.8049 181.96974 2.3509886e-38
109.57213 -159.27849 204.39255 2.3509886e-38
117.16211 -161.57578 207.34052 2.3509886e-38
120.55414 -169.73616 217.81226 2.3509886e-38
128.81906 -172.34749 221.16322 2.3509886e-38
133.70816 -180.68689 231.86467 2.3509886e-38
130.30316 -204.92537 262.96848 2.3509886e-38
147.49835 -195.39395 250.73737 2.3509886e-38
165.96622 -180.68689 231.86467 2.3509886e-38
165.86246 -207.45531 266.215 2.3509886e-38
176.85358 -211.36957 271.23792 2.3509886e-38
183.12305 -233.38722 299.49185 2.3509886e-38
211.17047 -231.77766 297.42639 2.3509886e-38
220.95775 -268.86209 345.01462 2.3509886e-38
236.63704 -275.47345 353.4986 2.3509886e-38
93.207153 -131.69901 179.69511 1.0697604e-38
94.409241 -138.02516 188.32677 1.2450062e-38
109.87383 -131.69901 179.69511 2.0197705e-38
119.83423 -130.07309 177.47665 2.3509886e-38
117.72195 -141.10608 192.53049 2.341805e-38
119.66849 -149.09322 203.42844 2.3509886e-38
129.67004 -148.39323 202.47337 2.3509886e-38
136.39288 -151.96039 207.34052 2.3509886e-38
141.84859 -158.0388 215.63414 2.3509886e-38
145.5836 -168.12639 229.39803 2.3509886e-38
152.59512 -174.62851 238.26976 2.3509886e-38
163.64485 -174.62851 238.26976 2.3509886e-38
170.75418 -183.76605 250.73737 2.3509886e-38
179.51344 -191.56218 261.37473 2.3509886e-38
183.12305 -219.49834 299.49185 2.3509886e-38
200.12888 -206.58667 281.87469 2.3509886e-38
207.02075 -241.28061 329.21243 2.3509886e-38
221.4151 -248.88 339.58133 2.3509886e-38
236.18405 -267.86237 365.4816 2.3509886e-38
101.2637 -117.02672 170.46178 7.6522485e-39
107.47887 -118.43104 172.50731 8.1132266e-39
108.69629 -124.40235 181.20515 7.5600529e-39
118.75401 -122.85378 178.94949 8.0206667e-39
117.72195 -132.17751 192.53049 1.0418859e-38
118.42723 -140.98933 205.36584 1.2356776e-38
126.77749 -142.345 207.34052 2.3050708e-38
134.73033 -144.4281 210.37477 2.3509886e-38
137.92599 -153.40808 223.45506 2.3509886e-38
145.5836 -157.48808 229.39803 2.3509886e-38
151.50681 -165.40648 240.93201 2.3509886e-38
162.18942 -166.33574 242.28555 2.3509886e-38
168.38155 -177.29198 258.24448 2.3509886e-38
177.76222 -183.89914 267.8685 2.3509886e-38
187.4657 -192.25818 280.04434 2.3509886e-38
198.79005 -198.70979 289.4418 2.3509886e-38
212.21288 -198.70979 289.4418 2.3509886e-38
220.24359 -242.68655 353.4986 2.3509886e-38
235.57272 -262.01556 381.65335 2.3509886e-38
93.207153 -115.03233 179.69511 7.0983502e-39
79.520187 -132.09454 206.34846 6.9136016e-39
89.855804 -131.46553 205.36584 6.7295677e-39
97.931335 -132.72961 207.34052 6.6373693e-39
112.18474 -128.40819 200.5899 6.9136016e-39
117.7977 -132.09454 206.34846 7.6518842e-39
126.77749 -132.72961 207.34052 9.1270156e-39
131.84859 -138.0388 215.63414 7.8344846e-39
137.92599 -143.04539 223.45506 1.511903e-38
145.02524 -147.63509 230.62476 1.3278354e-38
148.67654 -158.66528 247.85533 2.2775202e-38
161.69333 -155.97604 243.65439 2.3509886e-38
167.39224 -167.31976 261.37473 2.3509886e-38
177.31073 -172.54851 269.54266 2.3509886e-38
183.58426 -190.39835 297.42639 2.3509886e-38
201.70708 -174.73267 272.95462 2.3509886e-38
208.2942 -204.50192 319.45798 2.3509886e-38
221.63843 -215.68562 336.92834 2.3509886e-38
235.04329 -253.28221 395.65897 2.3509886e-38
93.207153 -106.699 179.69511 7.3742113e-39
102.15651 -106.25626 178.94949 7.3734924e-39
91.366592 -120.79132 203.42844 6.9128772e-39
101.50102 -120.22423 202.47337 6.7284887e-39
110.8907 -120.22423 202.47337 6.5451765e-39
117.16211 -123.11423 207.34052 6.91288e-39
119.23326 -130.65184 220.03484 6.8206843e-39
126.92561 -133.37375 224.6189 6.5451765e-39
130.49568 -141.47934 238.26976 6.6362945e-39
142.1413 -140.70198 236.96059 6.6377322e-39
149.82794 -145.49864 245.03879 7.0061546e-39
159.12627 -148.88232 250.73737 7.282387e-39
169.82187 -150.63388 253.68723 1.2539344e-38
176.39062 -162.07443 272.95462 1.5211944e-38
187.05698 -167.37099 281.87469 2.3234018e-38
195.88452 -181.61533 305.86401 2.3509883e-38
211.17047 -176.60524 297.42639 2.3509886e-38
221.4151 -201.63591 339.58133 2.3509886e-38
236.06596 -218.86975 368.60538 2.3509886e-38
253.15999 -218.86975 368.60538 2.3509886e-38
270.97095 -226.61734 381.65335 2.3509886e-38
43.592285 -122.95708 224.6189 6.2675078e-39
81.932632 -111.35736 203.42844 5.8987252e-39
91.366592 -111.35736 203.42844 5.8987252e-39
94.9496 -115.72431 211.40602 5.8990812e-39
110.8907 -110.83456 202.47337 6.7281202e-39
106.09229 -122.95708 224.6189 7.0969027e-39
112.20279 -126.92344 231.86467 7.280215e-39
114.96982 -134.90149 246.43901 7.5568018e-39
126.39839 -134.90149 246.43901 6.6362903e-39
134.52777 -138.86917 253.68723 6.5440947e-39
144.42944 -141.36383 258.24448 6.6362903e-39
151.07416 -149.4162 272.95462 6.2675106e-39
158.52161 -158.44135 289.4418 5.9909237e-39
174.4787 -153.29715 280.04434 5.6228628e-39
182.18112 -166.25183 303.71005 5.8076226e-39
197.01193 -163.94278 299.49185 6.5448191e-39
208.90305 -172.31941 314.79437 6.7266923e-39
220.72354 -190.38516 347.797 1.4476897e-38
237.26343 -184.43562 336.92834 2.3142544e-38
253.24315 -207.08562 378.30551 2.3509886e-38
270.42862 -203.51517 371.78299 2.3509886e-38
289.7247 -214.616 392.06207 2.3509886e-38
88.777008 -97.772667 195.14401 6.6359245e-39
90.614777 -102.40645 204.39255 6.3593377e-39
97.931335 -103.88346 207.34052 5.8983623e-39
86.296783 -119.37989 238.26976 5.8068855e-39
93.896713 -122.07774 243.65439 6.0827508e-39
100.11531 -126.36117 252.20367 5.9894789e-39
111.81122 -126.36117 252.20367 5.8061667e-39
124.24255 -125.62651 250.73737 5.5295826e-39
129.56882 -132.56294 264.58176 5.2544376e-39
134.01129 -142.15631 283.72913 5.4377499e-39
140.69733 -151.10321 301.58621 5.9912768e-39
155.99805 -149.01903 297.42639 6.6359245e-39
153.08099 -180.06467 359.39023 7.0958265e-39
181.21228 -154.34114 308.04877 6.3593405e-39
188.46547 -174.25613 347.797 6.2667917e-39
207.98297 -161.25194 321.84201 5.714334e-39
220.72354 -174.25613 347.797 5.4377499e-39
236.06596 -184.68172 368.60538 5.2529957e-39
253.13321 -183.11661 365.4816 6.9135792e-39
271.54291 -196.43419 392.06207 5.4384716e-39
308.97888 -200.07185 399.32248 2.0937416e-38
57.619995 -95.183304 209.35353 7.8326615e-39
82.72168 -92.055214 202.47337 7.0961782e-39
89.855804 -93.370285 205.36584 6.6362805e-39
86.112534 -101.59461 223.45506 6.267142e-39
82.597275 -110.77831 243.65439 5.8061639e-39
90.287384 -113.33965 249.28802 5.7139682e-39
92.759003 -120.29301 264.58176 6.8188739e-39
105.91292 -119.55951 262.96848 6.7266768e-39
101.84738 -134.29973 295.38922 5.8054408e-39
83.641678 -166.16747 365.4816 9.7630342e-39
96.693207 -170.50226 375.0159 6.4493893e-39
107.90652 -178.25237 392.06207 5.3459018e-39
147.97998 -171.99789 378.30551 6.2660658e-39
167.6899 -167.58769 368.60538 5.8076086e-39
184.78392 -167.58769 368.60538 5.437031e-39
204.5945 -158.12709 347.797 4.9767689e-39
221.18823 -155.61714 342.2764 8.6645969e-39
236.18405 -166.16747 365.4816 5.5285008e-39
253.3308 -176.64648 388.52997 5.8061667e-39
82.754303 -78.256714 191.67479 6.7273971e-39
80.331985 -83.846474 205.36584 7.2805709e-39
86.746201 -85.474564 209.35353 6.8195927e-39
86.957306 -90.76165 222.30324 6.6362805e-39
85.387314 -97.820892 239.59349 5.8976364e-39
91.205276 -101.19402 247.85533 5.6217726e-39
93.717789 -107.36439 262.96848 6.9110681e-39
93.508072 -116.60768 285.60812 6.8188725e-39
95.497986 -125.76971 308.04877 6.8188725e-39
92.957748 -140.86208 345.01462 6.2656987e-39
203.46875 -145.51868 356.42007 2.3509886e-38
221.63843 -137.56062 336.92834 9.1237772e-39
235.94585 -151.79103 371.78299 9.7662516e-39
63.942337 -73.275871 202.47337 7.1876564e-39
86.390076 -67.859825 187.50795 6.8188767e-39
82.72168 -73.275871 202.47337 7.0958153e-39
87.534866 -75.399803 208.34216 6.5422856e-39
87.793427 -80.039795 221.16322 6.7284747e-39
86.296783 -86.230721 238.26976 6.45009e-39
93.009766 -88.680458 245.03879 5.9894761e-39
91.788376 -96.3442 266.215 7.4645978e-39
97.54657 -100.69523 278.23761 7.6482702e-39
90.953812 -114.76294 317.10904 7.2802065e-39
94.204117 -123.87111 342.2764 5.8987154e-39
95.348404 -136.91017 378.30551 6.4508102e-39
219.49344 -131.15765 362.41031 5.0693149e-39
84.954895 -59.683159 189.15276 6.7273957e-39
84.277756 -63.291908 200.5899 6.542287e-39
86.746201 -66.057083 209.35353 5.9898321e-39
85.258942 -70.873749 224.6189 6.6352015e-39
83.537735 -76.44809 242.28555 6.4504543e-39
92.112671 -77.758629 246.43901 5.8065198e-39
91.788376 -83.99852 266.215 6.1753023e-39
89.249786 -92.569794 293.37979 5.9905551e-39
92.114731 -99.326714 314.79437 5.8983595e-39
96.638428 -106.31062 336.92834 5.7139682e-39
93.979813 -120.42265 381.65335 6.4508102e-39
221.63843 -106.31062 336.92834 8.2025006e-39
237.16313 -107.14771 339.58133 4.8849292e-39
81.254333 -52.052734 193.39384 6.0820277e-39
83.503357 -54.241867 201.52724 5.529577e-39
90.614777 -55.013081 204.39255 6.0820277e-39
85.258942 -60.457081 224.6189 5.2529929e-39
81.646118 -65.953178 245.03879 5.7146899e-39
90.287384 -67.096878 249.28802 5.8065198e-39
92.759003 -71.213249 264.58176 5.8054408e-39
92.464783 -77.385063 287.51218 5.0693205e-39
93.25882 -84.114204 312.51324 5.4373814e-39
97.827271 -89.982635 334.3165 5.7139682e-39
103.08098 -96.731331 359.39023 6.0816718e-39
220.24359 -95.145569 353.4986 1.5481617e-38
84.227829 -42.324932 189.98602 4.7927308e-39
81.136108 -45.534409 204.39255 5.3441067e-39
88.315948 -46.191154 207.34052 6.1742219e-39
86.957306 -49.524536 222.30324 5.4363024e-39
85.387314 -53.376442 239.59349 4.8860054e-39
93.009766 -54.589546 245.03879 5.528498e-39
91.788376 -59.307159 266.215 5.1600714e-39
91.407501 -64.481613 289.4418 5.1615161e-39
94.386459 -69.120575 310.26495 5.5288539e-39
96.638428 -75.060623 336.92834 5.8972805e-39
100.59084 -81.421692 365.4816 6.3582587e-39
220.24359 -78.752129 353.4986 1.0229374e-38
235.31277 -86.556396 388.52997 9.1216066e-39
87.800507 -32.792068 185.89149 4.9771249e-39
78.700562 -36.575768 207.34052 5.7128892e-39
84.333588 -37.47665 212.44743 5.435938e-39
81.753815 -40.466808 229.39803 5.7132438e-39
84.467697 -42.50145 240.93201 5.7139682e-39
92.112671 -43.472912 246.43901 5.8054408e-39
90.805695 -47.253166 267.8685 5.0675198e-39
92.464783 -50.718399 287.51218 6.0827508e-39
97.674072 -53.575771 303.71005 6.5422856e-39
100.15051 -58.074501 329.21243 7.0961796e-39
105.48949 -62.358688 353.4986 5.991274e-39
114.0845 -66.154434 375.0159 5.4391792e-39
219.23489 -64.472542 365.4816 7.464595e-39
235.82364 -66.154434 375.0159 9.6754951e-39
418.52954 -69.795959 395.65897 9.1305791e-39
431.8725 -67.92643 385.06097 9.7755856e-39
451.52899 -68.538376 388.52997 1.051387e-38
458.28821 -65.02359 368.60538 1.0698984e-38
469.74768 -63.397999 359.39023 1.0330201e-38
473.38361 -59.903622 339.58133 1.0329125e-38
492.95776 -60.86208 345.01462 1.199118e-38
508.95776 -60.86208 345.01462 1.5126571e-38
534.04724 -62.874046 356.42007 1.6967963e-38
89.186829 -23.964785 184.30269 5.0678744e-39
88.777008 -25.374479 195.14401 5.5288539e-39
86.746201 -27.222136 209.35353 4.8842076e-39
88.621002 -28.611019 220.03484 6.1735031e-39
84.467697 -31.328266 240.93201 6.7273971e-39
92.112671 -32.044342 246.43901 5.7143242e-39
101.84808 -32.414795 249.28802 5.6217726e-39
94.537613 -36.893158 283.72913 7.0976244e-39
90.953812 -41.233528 317.10904 5.3459074e-39
109.78371 -40.055428 308.04877 4.7019743e-39
116.43726 -42.483028 326.71838 4.7030477e-39
129.76706 -43.136612 331.74484 4.9796318e-39
147.51668 -42.163609 324.26187 5.3491374e-39
161.21922 -42.807327 329.21243 5.2558642e-39
171.70502 -45.591541 350.6246 4.7945259e-39
187.96519 -45.591541 350.6246 6.1738702e-39
204.95775 -44.86208 345.01462 5.8987281e-39
220.95775 -44.86208 345.01462 6.083841e-39
236.63704 -45.965244 353.4986 7.5578865e-39
253.03047 -45.965244 353.4986 5.437387e-39
270.08237 -47.523388 365.4816 1.2629009e-38
285.23965 -45.223869 347.797 9.5847554e-39
301.36871 -45.223869 347.797 1.5577111e-38
319.74765 -46.731331 359.39023 1.2262757e-38
338.63007 -47.929569 368.60538 9.4965394e-39
358.50629 -49.190876 378.30551 1.1248968e-38
370.75394 -47.124031 362.41031 1.37368e-38
382.01385 -45.223869 347.797 1.0786906e-38
394.64343 -44.15559 339.58133 9.9549448e-39
409.13843 -43.810623 336.92834 8.7618022e-39
419.46759 -42.483028 326.71838 1.0236918e-38
419.23416 -38.942776 299.49185 9.1309351e-39
431.86014 -38.674206 297.42639 9.4993617e-39
430.69885 -35.718216 274.69318 9.7770303e-39
452.46478 -37.385063 287.51218 9.7777436e-39
446.18011 -33.986423 261.37473 1.4666975e-38
477.61401 -37.137482 285.60812 1.5951957e-38
89.186829 -15.417776 184.30269 5.5288539e-39
88.777008 -16.324705 195.14401 5.7125249e-39
91.366592 -17.017735 203.42844 5.0685988e-39
89.440186 -18.313501 218.91791 6.1742233e-39
85.387314 -20.04311 239.59349 7.0961782e-39
93.896713 -20.382824 243.65439 6.173873e-39
101.84808 -20.854103 249.28802 5.0686016e-39
114.96982 -20.61577 246.43901 4.7026932e-39
122.76305 -21.222116 253.68723 4.794886e-39
131.7453 -21.733492 259.80017 4.7948888e-39
134.01129 -23.735262 283.72913 5.8108344e-39
146.48819 -23.892448 285.60812 5.7171968e-39
162.0627 -23.275869 278.23761 5.8093953e-39
172.97827 -23.892448 285.60812 6.2660658e-39
183.58426 -24.881102 297.42639 6.5451709e-39
196.26562 -25.406759 303.71005 7.3745798e-39
209.78371 -25.769712 308.04877 7.4667754e-39
224.61342 -25.229088 301.58621 6.7292104e-39
238.43771 -25.586948 305.86401 7.9270333e-39
252.58545 -25.229088 301.58621 1.1246446e-38
266.45639 -25.053886 299.49185 1.1981482e-38
280.34528 -25.053886 299.49185 1.0047533e-38
294.54349 -25.229088 301.58621 1.2814139e-38
307.7222 -24.881102 297.42639 1.0417771e-38
322.5155 -25.229088 301.58621 1.2999601e-38
335.90082 -25.053886 299.49185 7.3756644e-39
350.48755 -25.229088 301.58621 1.4199234e-38
361.35864 -24.542583 293.37979 1.2074388e-38
375.82001 -24.710682 295.38922 1.5491426e-38
387.63324 -24.376755 291.39749 1.3920839e-38
392.4823 -22.979361 274.69318 7.5607549e-39
400.43036 -22.270121 266.215 9.5912084e-39
405.116 -21.222116 253.68723 8.6724863e-39
417.86816 -21.347691 255.18832 8.7628784e-39
424.53864 -20.734251 247.85533 1.0421672e-38
428.83823 -19.932373 238.26976 8.3962539e-39
431.85037 -19.088676 228.18428 1.3919699e-38
92.551117 -6.7270279 180.44698 4.8827642e-39
90.936234 -7.1774983 192.53049 5.1611504e-39
99.864807 -7.1774983 192.53049 4.9767591e-39
105.56949 -7.3413682 196.92615 5.0703967e-39
110.8907 -7.5481672 202.47337 5.5328084e-39
102.24448 -8.5976448 230.62476 5.6221384e-39
105.19615 -9.0833874 243.65439 5.1622364e-39
119.44595 -8.8826504 238.26976 3.8725696e-39
129.16043 -8.9818974 240.93201 4.8885152e-39
138.46431 -9.1349983 245.03879 5.7193464e-39
149.82794 -9.1349983 245.03879 5.0732694e-39
154.1087 -9.8635559 264.58176 5.6235677e-39
168.38155 -9.6273031 258.24448 6.91288e-39
182.77293 -9.2934084 249.28802 7.2827415e-39
190.55382 -9.9244423 266.215 7.0979929e-39
202.89949 -9.9244423 266.215 7.3738581e-39
214.81073 -10.048498 269.54266 6.6359274e-39
226.87718 -10.240507 274.69318 9.0341011e-39
239.74666 -10.111696 271.23792 8.5724013e-39
252.2007 -9.5699978 256.70731 1.4013398e-38
264.10547 -9.5699978 256.70731 1.4381097e-38
275.25848 -9.2934084 249.28802 9.95497e-39
287.03326 -9.3474398 250.73737 9.5847568e-39
298.66116 -9.3474398 250.73737 8.0203065e-39
310.64163 -9.4021034 252.20367 1.2537905e-38
322.33752 -9.4021034 252.20367 1.4566207e-38
336.0462 -9.6273031 258.24448 1.3554233e-38
345.17279 -9.3474398 250.73737 1.4659495e-38
359.99829 -9.6273031 258.24448 1.5767281e-38
369.82187 -9.4574099 253.68723 1.7332429e-38
374.97049 -8.9818974 240.93201 1.4749895e-38
386.14368 -8.9818974 240.93201 1.0138282e-38
394.88855 -8.8338442 236.96059 9.5887084e-39
402.52539 -8.6438694 231.86467 1.0420264e-38
407.35608 -8.3303604 223.45506 9.4961471e-39
409.45673 -7.9199982 212.44743 8.6685304e-39
416.03729 -7.7669549 208.34216 1.0141857e-38
91.222443 1.6550229 181.96974 5.0678758e-39
93.726837 1.7203526 189.15276 4.0551658e-39
103.78139 1.7053931 187.50795 4.7026932e-39
109.42097 1.7432907 191.67479 4.6104976e-39
118.30986 1.7432907 191.67479 3.782176e-39
124.9761 1.7748435 195.14401 4.7963195e-39
140.93497 1.6691082 183.51842 5.9026643e-39
141.10469 1.8075595 198.74115 5.2580138e-39
143.96921 1.9227471 211.40602 4.8874362e-39
149.84549 2.0012267 220.03484 4.6115724e-39
159.12225 2.0218577 222.30324 5.5295826e-39
169.84471 2.0114892 221.16322 6.1763911e-39
179.00894 2.0429187 224.6189 6.3597062e-39
190.35753 2.0114892 221.16322 7.0972726e-39
200.35938 2.0218577 222.30324 8.4809302e-39
210.05087 2.0536146 225.79491 8.941181e-39
219.72968 2.1088195 231.86467 8.1114246e-39
229.83177 2.1791134 239.59349 9.8624227e-39
241.37418 2.075346 228.18428 1.4014843e-38
251.92561 2.0429187 224.6189 1.3643537e-38
261.8486 1.961202 215.63414 1.3829361e-38
271.7399 1.9514449 214.56134 9.2195742e-39
283.52484 2.0644231 226.98331 1.180035e-38
293.59229 2.0429187 224.6189 1.2353149e-38
302.90674 2.0012267 220.03484 9.4036053e-39
313.76144 2.0218577 222.30324 1.3461312e-38
325.6301 2.0644231 226.98331 1.2722659e-38
333.51898 2.0012267 220.03484 1.797781e-38
343.72305 2.0012267 220.03484 1.3274401e-38
353.3996 1.991068 218.91791 1.3461652e-38
360.19568 1.9322188 212.44743 1.7791261e-38
373.07941 1.9810121 217.81226 1.2912081e-38
379.90009 1.9322188 212.44743 1.5577476e-38
387.05179 1.8948811 208.34216 8.7582317e-39
394.61771 1.8678114 205.36584 9.4968631e-39
401.26038 1.8328991 201.52724 9.3131795e-39
404.81854 1.7668487 194.26498 1.12475e-38
95.142868 9.8446112 177.47665 4.239557e-39
98.381775 10.179747 183.51842 3.5974246e-39
113.29153 9.724555 175.3123 4.9796346e-39
109.42097 10.63218 191.67479 3.9662029e-39
121.73038 10.356019 186.69623 4.8874362e-39
132.92253 10.136612 182.7408 4.703768e-39
140.93497 10.179747 183.51842 5.3502122e-39
144.97652 10.63218 191.67479 4.8899571e-39
153.86542 10.63218 191.67479 6.4526039e-39
161.57532 10.775858 194.26498 7.0050756e-39
170.22498 10.824617 195.14401 6.6370148e-39
176.27225 11.284153 203.42844 6.0838438e-39
184.78334 11.446127 206.34846 7.6511695e-39
194.88019 11.337632 204.39255 8.2969046e-39
203.70056 11.501156 207.34052 9.7723878e-39
213.66533 11.391622 205.36584 1.0785098e-38
223.06085 11.446127 206.34846 9.1252122e-39
232.54672 11.501156 207.34052 1.0787277e-38
242.16211 11.501156 207.34052 1.4472567e-38
251.75221 11.337632 204.39255 1.4750261e-38
261.12543 11.231175 202.47337 1.5024288e-38
270.23016 11.075188 199.66124 1.4471851e-38
278.95328 10.87382 196.03104 1.7328474e-38
287.87204 10.824617 195.14401 2.1475482e-38
297.5675 10.97358 197.82948 1.0045734e-38
307.80243 11.178694 201.52724 9.5876449e-39
317.14822 11.178694 201.52724 1.1337197e-38
327.95105 11.391622 205.36584 1.5214122e-38
335.04498 11.075188 199.66124 1.4846054e-38
339.34088 10.492283 189.15276 1.1987964e-38
348.98105 10.585135 190.82668 1.2904151e-38
353.70093 10.179747 183.51842 1.4381813e-38
364.1546 10.356019 186.69623 1.4937535e-38
371.75845 10.267126 185.09369 1.3093224e-38
381.47064 10.356019 186.69623 9.2159588e-39
385.43817 10.009375 180.44698 9.9567609e-39
378.72552 8.9597025 161.5237 1.0141156e-38
120.43533 15.971784 156.82483 4.6115724e-39
124.98036 16.328032 160.32278 5.5321007e-39
127.40201 17.024187 167.15825 4.242794e-39
138.60797 16.512182 162.13094 4.6104863e-39
145.73479 16.574492 162.74275 5.44061e-39
156.45883 16.030075 157.39719 5.717194e-39
153.15457 18.000986 176.7493 5.8076086e-39
160.2478 18.225065 178.94949 6.3604279e-39
167.51982 18.454792 181.20515 6.1753149e-39
176.5405 18.301003 179.69511 7.8355636e-39
184.87383 18.301003 179.69511 9.4032522e-39
192.96953 18.377575 180.44698 7.282387e-39
200.71915 18.611189 182.7408 7.5589711e-39
210.20544 18.149754 178.21004 1.0138654e-38
217.6683 18.611189 182.7408 9.4940087e-39
224.97653 19.521069 191.67479 1.1152437e-38
234.55199 18.690386 183.51842 1.4474379e-38
243.17874 18.377575 180.44698 1.0232628e-38
251.52776 18.149754 178.21004 1.8529549e-38
259.4411 17.498966 171.82004 9.5833022e-39
268.20715 18.301003 179.69511 1.3460249e-38
276.65155 18.377575 180.44698 1.7239174e-38
284.5856 18.149754 178.21004 1.6314689e-38
291.64545 17.639521 173.20012 1.0785098e-38
302.1929 18.53266 181.96974 1.355169e-38
309.379 18.149754 178.21004 1.3554202e-38
317.64346 18.149754 178.21004 1.5119018e-38
322.89569 17.429525 171.1382 1.5765115e-38
330.51273 17.360634 170.46178 1.3186888e-38
338.76874 17.429525 171.1382 1.6228276e-38
347.09052 17.498966 171.82004 1.087694e-38
352.6059 17.090429 167.80867 1.5487826e-38
363.02676 17.498966 171.82004 1.1618131e-38
370.9949 17.498966 171.82004 8.9433657e-39
369.00632 16.147943 158.55452 1.7238813e-38
376.35925 16.147943 158.55452 1.2815555e-38
119.33929 22.19528 149.74593 5.0707456e-39
127.55917 21.966463 148.20216 4.3342624e-39
131.16507 22.587423 152.39162 4.2417122e-39
134.13815 23.414801 157.97372 4.6104948e-39
141.86029 23.329346 157.39719 4.3349869e-39
147.66562 23.674965 159.72899 4.6090626e-39
156.45883 23.329346 157.39719 6.728839e-39
163.12396 23.500885 158.55452 6.4515333e-39
168.9877 23.940975 161.5237 6.8214088e-39
174.78819 24.491343 165.23689 9.03482e-39
182.19122 24.585541 165.87242 7.9277564e-39
190.11386 24.491343 165.23689 7.7440812e-39
197.16945 24.776127 167.15825 8.7575199e-39
204.39105 25.06761 169.12482 9.4028977e-39
212.08551 25.166302 169.79066 9.402162e-39
220.19421 24.96969 168.46417 8.5731286e-39
227.5686 25.467094 171.82004 1.0327012e-38
235.70755 25.166302 169.79066 8.5734747e-39
243.63171 24.96969 168.46417 1.6595613e-38
251.40578 24.305098 163.98033 1.4842077e-38
258.6803 23.414801 157.97372 8.5713279e-39
266.42752 24.030979 162.13094 1.6776387e-38
274.40506 24.491343 165.23689 1.7054771e-38
281.46512 24.030979 162.13094 1.6315415e-38
288.54913 23.762976 160.32278 8.4784092e-39
296.85498 24.213032 163.35919 1.3183622e-38
304.84625 24.397865 164.60622 1.3549546e-38
312.47986 24.397865 164.60622 8.7571639e-39
319.05908 24.030979 162.13094 8.8507973e-39
324.07172 23.244511 156.82483 1.7243865e-38
332.24161 23.500885 158.55452 1.6040295e-38
339.26636 23.414801 157.97372 1.3920146e-38
343.84241 22.748186 153.47626 1.2079081e-38
348.84918 22.272615 150.2677 1.6412312e-38
358.46329 22.82943 154.02438 1.733028e-38
361.61972 22.04221 148.7132 1.5760795e-38
369.33929 22.19528 149.74593 9.8634905e-39
130.53879 26.642035 136.91057 3.6896161e-39
133.17941 27.515543 141.39943 3.6878252e-39
139.00897 27.697165 142.33276 4.2417178e-39
143.14093 28.352163 145.69875 4.4250273e-39
147.11707 29.139725 149.74593 6.269314e-39
154.06152 29.139725 149.74593 5.9919999e-39
160.06918 29.446459 151.3222 6.7292132e-39
167.95041 29.139725 149.74593 7.8355579e-39
174.89485 29.139725 149.74593 7.9277564e-39
181.12183 29.446459 151.3222 6.913959e-39
188.99556 29.038895 149.22778 8.4809302e-39
194.96379 29.550142 151.85503 9.3114097e-39
200.61493 30.40667 156.25662 1.032521e-38
207.70807 30.517239 156.82483 1.0418143e-38
214.4639 30.967678 159.13959 1.2078369e-38
222.25352 30.517239 156.82483 8.5734915e-39
229.81978 30.079716 154.57645 1.5026482e-38
237.21732 29.550142 151.85503 1.576259e-38
244.29971 29.343498 150.79311 1.4660193e-38
251.2793 29.038895 149.22778 7.5596927e-39
257.82086 27.697165 142.33276 1.308927e-38
264.71286 28.256702 145.20818 9.4950933e-39
271.88907 28.839315 148.20216 9.6794902e-39
279.47083 29.550142 151.85503 9.6787685e-39
285.27115 28.545036 146.6899 9.8598863e-39
292.95041 29.139725 149.74593 9.3110538e-39
300.0687 29.241257 150.2677 1.1524101e-38
303.49582 27.425623 140.93735 7.4703557e-39
313.56305 29.038895 149.22778 8.2054139e-39
319.75931 28.740549 147.69461 1.0050065e-38
325.31891 28.256702 145.20818 1.3091442e-38
330.96252 27.881199 143.2785 1.327798e-38
339.08688 28.352163 145.69875 1.5855524e-38
343.62943 27.697165 142.33276 1.3183635e-38
347.96683 27.071743 139.1188 1.5765856e-38
352.43582 26.557724 136.47731 1.5668603e-38
361.22888 27.159355 139.56902 1.4936091e-38
133.49756 32.174118 133.51959 3.4130334e-39
138.30634 32.577557 135.19382 4.6094186e-39
142.21063 33.308464 138.22702 4.8867355e-39
147.63663 33.631847 139.56902 5.5306672e-39
153.16901 33.961571 140.93735 5.7150585e-39
159.11092 34.185001 141.86456 5.6235817e-39
167.05411 33.631847 139.56902 6.1764023e-39
172.01227 34.297825 142.33276 7.4660538e-39
179.08104 34.072922 141.39943 6.0842067e-39
185.4267 34.185001 141.86456 7.3749455e-39
192.1958 34.072922 141.39943 8.2965417e-39
198.41492 34.297825 142.33276 7.0972726e-39
204.86661 34.411392 142.80406 8.2054447e-39
211.23239 34.6408 143.75609 8.6642424e-39
217.89906 34.6408 143.75609 7.8337629e-39
224.81755 34.297825 142.33276 1.0968781e-38
231.47934 34.185001 141.86456 1.3645341e-38
238.17497 33.850948 140.47827 1.5395249e-38
244.74103 33.523357 139.1188 1.7234131e-38
251.17 32.886837 136.47731 1.2265303e-38
257.31393 32.074818 133.1075 6.6344826e-39
263.82822 32.886837 136.47731 1.8527754e-38
270.48141 33.415565 138.67148 1.557892e-38
276.57053 32.991241 136.91057 1.6131737e-38
282.91974 32.991241 136.91057 1.2810172e-38
288.65536 32.475754 134.77133 9.7702383e-39
295.76343 33.096306 137.34659 1.5672215e-38
301.15536 32.475754 134.77133 1.5671484e-38
308.87732 33.308464 138.22702 1.0786554e-38
315.92142 33.631847 139.56902 1.0508158e-38
320.34503 32.68 135.61896 1.3738239e-38
326.63434 32.68 135.61896 1.4197436e-38
330.15112 31.587358 131.08458 1.5949155e-38
335.70911 31.396498 130.29253 9.5858498e-39
339.85126 30.746275 127.59416 1.4475466e-38
345.4859 30.655577 127.21778 1.1431557e-38
352.59619 31.021614 128.7368 1.9360017e-38
142.35564 37.438793 130.29253 5.1622392e-39
148.09006 37.552246 130.68736 5.7150585e-39
153.2713 37.896759 131.88632 6.3604279e-39
162.59503 36.555283 127.21778 6.4526235e-39
165.24454 38.013008 132.29088 6.5455408e-39
171.61993 37.896759 131.88632 7.7440798e-39
177.51447 38.013008 132.29088 6.6384511e-39
183.03317 38.36607 133.51959 7.006163e-39
189.78441 38.013008 132.29088 7.1909102e-39
195.41708 38.36607 133.51959 7.4667754e-39
201.90683 38.129971 132.69794 1.0231924e-38
207.66994 38.485218 133.93425 8.9422853e-39
213.31142 39.092243 136.04678 7.7437323e-39
219.33031 39.465736 137.34659 1.4381099e-38
227.01723 37.326027 129.90009 1.3458418e-38
233.09225 37.213936 129.50999 1.1985831e-38
239.09825 37.213936 129.50999 1.6780354e-38
245.10426 37.213936 129.50999 1.437893e-38
251.08105 36.234623 126.10184 1.1244264e-38
256.75134 35.305531 122.86845 7.1865872e-39
262.92816 36.663433 127.59416 1.4194188e-38
268.90125 36.772228 127.97279 1.2723036e-38
274.76248 36.663433 127.59416 1.5208329e-38
280.40973 36.340881 126.47163 9.766976e-39
285.24136 35.305531 122.86845 1.234665e-38
292.64011 36.772228 127.97279 1.5580361e-38
296.63739 35.305531 122.86845 1.3458757e-38
304.02859 36.447765 126.84361 1.1889648e-38
307.86853 35.205231 122.51939 1.465804e-38
315.60034 36.340881 126.47163 1.6408324e-38
319.82727 35.507854 123.57257 1.5211588e-38
324.91397 35.205231 122.51939 1.1431918e-38
330.14044 35.006329 121.82719 1.447148e-38
335.54852 34.907719 121.48402 1.3736811e-38
339.17279 34.138405 118.80669 1.7610823e-38
347.0896 35.006329 121.82719 2.0556012e-38
148.48923 41.003536 122.86845 6.0849228e-39
154.99921 40.656048 121.82719 6.268598e-39
161.15089 40.427643 121.14278 5.1640455e-39
166.29865 40.656048 121.82719 5.8101338e-39
171.50488 40.887047 122.51939 7.8344817e-39
175.27615 41.959885 125.73419 6.452992e-39
181.10706 41.959885 125.73419 7.4667782e-39
188.55034 40.887047 122.51939 6.8224906e-39
194.39014 40.771221 122.17232 8.7578954e-39
199.48343 41.238514 123.57257 7.7440798e-39
205.08539 41.357014 123.92767 9.4047039e-39
210.71965 41.476196 124.28481 9.1255765e-39
216.77063 41.120689 123.21951 1.2075855e-38
222.16681 41.596073 124.64401 1.2261317e-38
227.62381 42.205986 126.47163 1.3551701e-38
234.0502 40.771221 122.17232 1.8624259e-38
239.83115 40.3144 120.80344 1.4753844e-38
245.49646 39.757572 119.13488 1.354774e-38
251.0074 39.215916 117.5118 8.6631382e-39
256.43945 39.109348 117.19247 7.5600585e-39
261.93912 39.323063 117.83286 1.5490709e-38
267.49924 39.539124 118.48029 1.9175634e-38
272.7438 39.109348 117.19247 1.8896901e-38
278.33258 39.323063 117.83286 1.6040989e-38
282.9859 38.379307 115.00488 9.9538882e-39
288.83707 38.897949 116.559 1.5580005e-38
294.60413 39.215916 117.5118 1.4472923e-38
300.328 39.430798 118.15569 1.511579e-38
306.58255 39.978447 119.79675 1.5211214e-38
309.81207 38.481926 115.31238 1.5763295e-38
316.76636 39.430798 118.15569 1.6225363e-38
321.2695 38.897949 116.559 1.521338e-38
326.67493 38.897949 116.559 1.6408681e-38
330.77054 38.277237 114.69901 1.2905994e-38
335.18347 37.874317 113.49165 1.2170576e-38
339.50449 37.479794 112.30945 2.2399599e-38
153.01474 42.248043 111.15162 5.1633224e-39
156.97055 42.799583 112.60268 4.8863796e-39
161.73154 43.024254 113.19377 6.0845584e-39
166.32201 43.365715 114.09214 5.992367e-39
171.61301 43.365715 114.09214 6.2685896e-39
175.52484 44.183937 116.24482 7.8370181e-39
181.2861 43.947025 115.62152 7.7433679e-39
186.64804 43.947025 115.62152 8.5738531e-39
191.69736 44.183937 116.24482 9.0344585e-39
196.94519 44.303352 116.559 7.9281081e-39
202.35059 44.303352 116.559 7.6511807e-39
207.29431 44.787544 117.83286 8.296906e-39
212.75879 44.787544 117.83286 1.0878744e-38
218.30986 44.665504 117.5118 1.1246446e-38
224.04237 44.183937 116.24482 1.5395616e-38
229.37762 44.303352 116.559 1.5491413e-38
235.10507 43.365715 114.09214 1.4840634e-38
240.54614 42.688126 112.30945 1.5488179e-38
245.8517 41.710537 109.73747 1.1243917e-38
250.9243 40.980602 107.81707 7.0029148e-39
256.0762 42.031387 110.58161 8.0163507e-39
261.09067 41.604671 109.45895 1.4105242e-38
266.41681 42.248043 111.15162 1.2904537e-38
271.79614 42.688126 112.30945 1.7513969e-38
276.93433 42.577248 112.01774 1.4193455e-38
281.31573 41.499344 109.18185 7.738675e-39
286.10483 41.186535 108.35886 1.6960406e-38
290.92429 40.980602 107.81707 1.5856946e-38
296.50562 41.499344 109.18185 1.6963294e-38
300.7973 40.878407 107.5482 1.5483122e-38
306.77594 41.604671 109.45895 1.5120797e-38
310.47076 40.675537 107.01446 1.6591263e-38
314.31641 39.981075 105.18739 1.7792354e-38
320.92432 40.980602 107.81707 1.3369848e-38
324.2536 40.078827 105.44456 1.2168769e-38
329.14355 40.078827 105.44456 1.2905967e-38
334.86349 40.47467 106.48599 1.7701575e-38
158.44214 44.749977 104.93146 4.7938238e-39
162.67087 45.079021 105.70301 6.3611467e-39
168.1745 44.749977 104.93146 6.9146891e-39
173.78246 44.318653 103.92007 6.4526263e-39
177.55432 44.968803 105.44456 7.0987146e-39
180.57718 46.211658 108.35886 6.6373805e-39
186.24307 45.751842 107.28067 7.9281333e-39
190.92429 45.980602 107.81707 7.7422917e-39
195.51566 46.328064 108.63181 8.0203191e-39
201.16846 45.751842 107.28067 9.0351857e-39
204.67793 47.280827 110.86588 1.02305e-38
209.29614 47.896461 112.30945 1.0507436e-38
214.87041 47.402683 111.15162 7.190906e-39
220.48152 46.680813 109.45895 1.0877292e-38
225.05109 47.648293 111.72753 1.290705e-38
230.73161 46.445053 108.90613 1.6778565e-38
236.26761 44.859123 105.18739 1.7423923e-38
241.25233 44.318653 103.92007 1.2998176e-38
245.9944 45.189781 105.96272 1.207369e-38
250.85982 42.772652 100.29495 1.2073686e-38
255.69644 44.212116 103.67026 1.4287827e-38
260.60611 44.641361 104.67677 1.6777463e-38
265.46048 44.641361 104.67677 1.6223582e-38
270.82019 45.751842 107.28067 1.7423206e-38
275.23047 44.749977 104.93146 1.6041349e-38
279.59262 44.000576 103.17423 1.0691809e-38
283.97098 43.480476 101.95467 1.3827554e-38
289.25592 44.106094 103.42165 1.5025036e-38
293.63354 43.687035 102.43902 1.5949153e-38
298.49933 43.79105 102.68292 1.5675817e-38
302.38809 43.073162 100.9996 1.4657684e-38
308.30075 44.000576 103.17423 1.6316502e-38
313.08545 44.000576 103.17423 1.7700493e-38
316.43964 43.073162 100.9996 1.6680943e-38
319.17932 41.895763 98.238785 1.6595599e-38
324.75687 42.476307 99.600067 1.3090371e-38
329.37579 42.476307 99.600067 1.14265e-38
159.75952 48.902256 103.42165 4.7009065e-39
165.56805 48.322845 102.19627 5.254802e-39
171.60773 47.534363 100.52874 6.5448191e-39
176.09747 47.645424 100.76362 5.8998183e-39
180.60825 47.757004 100.9996 9.3103195e-39
183.58105 49.01981 103.67026 9.8642317e-39
188.68353 48.785267 103.17423 8.4802071e-39
193.46823 48.785267 103.17423 8.7600422e-39
198.00414 49.01981 103.67026 8.5749349e-39
202.69812 49.137928 103.92007 1.2535371e-38
207.61951 49.01981 103.67026 9.4950933e-39
211.97012 49.616158 104.93146 9.2188581e-39
216.99689 49.375885 104.42331 9.4018075e-39
222.04259 49.01981 103.67026 1.1152457e-38
227.23337 48.208607 101.95467 1.3369108e-38
232.08855 47.86911 101.23669 1.4658051e-38
236.93671 47.313786 100.06225 1.4470057e-38
241.59657 47.204262 99.83062 1.2075859e-38
246.23491 47.095245 99.600067 1.2165881e-38
250.81978 45.215611 95.624893 7.5553739e-39
255.4227 46.664165 98.688393 1.3828277e-38
260.06848 46.986729 99.370575 1.6407956e-38
264.74472 47.204262 99.83062 1.6040634e-38
269.32959 47.095245 99.600067 1.5764752e-38
274.11563 47.423817 100.29495 1.7605058e-38
277.85974 45.928471 97.132492 1.1426111e-38
281.86191 45.215611 95.624893 7.1905431e-39
286.53955 45.518394 96.265244 1.5947333e-38
291.94 46.557629 98.463074 1.5300533e-38
295.98132 46.032146 97.351753 1.6503403e-38
299.0564 44.719826 94.576378 1.419744e-38
303.7963 45.015984 95.202713 1.6592348e-38
308.86099 45.518394 96.265244 1.4931742e-38
311.27368 44.043716 93.1465 1.4013387e-38
315.73532 44.13905 93.348114 1.613243e-38
319.76233 43.948795 92.945747 1.3737182e-38
325.20728 44.621971 94.369423 1.3735728e-38
165.81592 50.094498 96.480598 5.4388401e-39
173.54016 48.052017 92.546844 6.7310195e-39
177.20718 48.468056 93.348114 6.177124e-39
180.93825 48.891357 94.163383 7.3756644e-39
183.56439 50.206818 96.696922 8.75788e-39
188.18729 50.094498 96.480598 1.0049326e-38
193.04382 49.760536 95.837395 6.731374e-39
196.65851 50.546818 97.351753 8.8515175e-39
199.9299 51.833893 99.83062 9.1248716e-39
204.55954 51.833893 99.83062 1.0047177e-38
209.18916 51.833893 99.83062 9.4032536e-39
213.90234 51.714184 99.600067 8.6649683e-39
218.44843 51.833893 99.83062 1.105989e-38
223.38608 51.240826 98.688393 1.3458771e-38
228.11299 50.891457 98.015518 1.3829381e-38
232.93002 50.094498 96.480598 1.6133535e-38
237.48827 49.760536 95.837395 1.3917951e-38
241.98613 49.430996 95.202713 9.952812e-39
246.48647 48.25914 92.945747 7.5535592e-39
250.78496 47.541912 91.564392 6.0809585e-39
255.11818 48.363373 93.1465 1.059926e-38
259.37708 48.052017 92.546844 1.3178954e-38
263.75748 48.363373 93.1465 1.336695e-38
268.15558 48.573189 93.550606 1.4842088e-38
272.30048 48.155357 92.745865 1.4563342e-38
276.65887 48.25914 92.945747 1.0964795e-38
280.12518 46.943901 90.412636 1.0595298e-38
284.60828 47.340889 91.177223 1.5854046e-38
289.0845 47.643066 91.759209 1.4749532e-38
292.97409 47.241016 90.984871 1.345877e-38
296.31412 46.360748 89.289497 1.8528812e-38
300.77026 46.650501 89.847557 1.5577824e-38
304.5957 46.360748 89.289497 1.4473293e-38
309.35089 46.845692 90.223488 1.5028992e-38
314.07114 47.241016 90.984871 1.4104512e-38
317.29672 46.553516 89.660767 1.5948801e-38
321.90317 46.845692 90.223488 1.3647488e-38
165.43756 54.814026 96.914223 6.819611e-39
175.92456 50.711521 89.660767 6.2685868e-39
179.49626 51.136772 90.412636 6.268235e-39
184.10358 50.817169 89.847557 5.3466459e-39
187.0907 51.788197 91.564392 8.5752866e-39
190.70755 52.343864 92.546844 8.0203191e-39
194.40286 52.911587 93.550606 9.4039879e-39
198.5179 53.142136 93.958229 8.6660403e-39
203.38301 52.569485 92.945747 8.0199688e-39
207.13913 53.258167 94.163383 9.031569e-39
211.25214 53.609322 94.784241 6.0849144e-39
215.9471 53.142136 93.958229 7.6507981e-39
220.49722 52.797058 93.348114 1.3827575e-38
224.495 53.491756 94.576378 1.3185456e-38
229.51004 51.898384 91.759209 1.4566957e-38
233.76535 51.898384 91.759209 1.345735e-38
238.50963 49.780083 88.013931 1.8346615e-38
242.38934 51.136772 90.412636 1.493102e-38
246.67967 49.678699 87.834679 9.0294236e-39
250.74841 49.377007 87.30127 7.8355579e-39
254.90625 50.501534 89.289497 1.603737e-38
259.0658 50.606308 89.474747 1.6040637e-38
263.5238 51.788197 91.564392 1.437893e-38
267.47333 50.92326 90.035133 1.5760443e-38
271.51395 50.606308 89.474747 1.4011592e-38
275.71667 50.711521 89.660767 1.3456959e-38
278.28683 48.016224 84.895332 1.1247198e-38
282.87091 48.980404 86.60006 1.1245357e-38
287.11053 49.277256 87.124908 1.4935003e-38
291.57086 49.780083 88.013931 1.5763683e-38
294.91913 48.980404 86.60006 1.2631168e-38
298.73944 48.784481 86.253654 1.2722656e-38
302.84512 48.882248 86.426506 1.0971668e-38
305.73618 47.921886 84.728539 1.3459141e-38
309.7829 48.016224 84.895332 1.2536837e-38
315.39337 49.277256 87.124908 1.2076938e-38
318.60223 48.687107 86.08149 1.2818455e-38
177.87393 53.425591 87.30127 6.3629558e-39
182.46931 52.996468 86.60006 9.1288611e-39
186.48538 52.996468 86.60006 7.4646118e-39
190.26154 53.210163 86.949249 8.298348e-39
192.79445 54.642323 89.289497 8.3905408e-39
196.0415 55.562614 90.79332 7.4685845e-39
200.87259 54.869522 89.660767 7.6511695e-39
204.55823 55.445885 90.602577 8.8522616e-39
208.6731 55.562614 90.79332 8.940465e-39
213.19357 55.098625 90.035133 1.1337916e-38
217.63916 54.642323 89.289497 9.493287e-39
222.23975 53.752018 87.834679 1.1246796e-38
226.02003 54.416992 88.921295 1.1801055e-38
230.54489 53.317657 87.124908 1.8802536e-38
234.70886 52.890263 86.426506 1.2628655e-38
238.7843 52.574184 85.910019 1.2719047e-38
242.83968 52.055702 85.062775 9.1245017e-39
246.9006 50.175362 81.990166 7.4653349e-39
250.72353 51.64822 84.396927 6.173873e-39
254.62836 51.547344 84.232086 1.4840285e-38
258.65289 52.261864 85.399658 1.6131021e-38
262.44086 51.547344 84.232086 1.631506e-38
266.34711 51.547344 84.232086 1.5668601e-38
270.41284 51.953232 84.895332 1.6223583e-38
274.25436 51.749493 84.562408 1.3458418e-38
277.21536 49.985306 81.679596 7.8305175e-39
281.78586 51.24707 83.741417 9.9553582e-39
285.87836 51.547344 84.232086 1.0416334e-38
289.39984 51.04882 83.417465 1.1615949e-38
293.60568 51.446865 84.067894 1.4654451e-38
297.4119 51.346771 83.904335 1.2721552e-38
299.75418 49.79668 81.371376 1.1153862e-38
303.02753 49.331291 80.610893 8.4801931e-39
308.62881 50.950272 83.256424 1.1154969e-38
312.48981 50.950272 83.256424 1.0141179e-38
317.25974 51.64822 84.396927 1.1708143e-38
179.44498 56.22226 85.399658 5.8998155e-39
184.44389 55.345501 84.067894 7.0998048e-39
189.05533 54.705666 83.096008 8.2047062e-39
193.66867 53.977646 81.990166 6.3611495e-39
197.47095 53.977646 81.990166 8.1143084e-39
199.04517 56.445808 85.73922 9.3099678e-39
202.45416 57.127247 86.7743 7.6529926e-39
206.39056 57.24242 86.949249 7.6515324e-39
210.73944 56.784481 86.253654 8.3887373e-39
215.08855 56.22226 85.399658 1.1524457e-38
218.86398 56.55825 85.910019 1.2537916e-38
223.16873 55.89024 84.895332 1.1800336e-38
227.15073 55.780434 84.728539 1.4661665e-38
231.6216 54.183666 82.303108 1.6316883e-38
235.57602 53.671532 81.525192 1.4477271e-38
239.33659 53.773182 81.679596 1.1614503e-38
243.20172 53.168991 80.761848 1.5486719e-38
247.05725 51.249531 77.84626 1.0234819e-38
250.67838 52.095856 79.131798 1.0509597e-38
254.52237 54.183666 82.303108 1.1152454e-38
258.16769 53.069611 80.610893 1.5025022e-38
262.04105 53.671532 81.525192 1.4566572e-38
265.64435 53.069611 80.610893 1.3090728e-38
269.67688 53.875221 81.834587 1.3364429e-38
273.51657 53.977646 81.990166 9.9517218e-39
276.5614 52.481037 79.716873 6.2657127e-39
280.14682 52.287735 79.423256 6.1731569e-39
284.01801 52.578224 79.864494 1.2995296e-38
287.79169 52.675774 80.012665 1.6501262e-38
291.42542 52.578224 79.864494 1.4568365e-38
294.79727 52.19162 79.27726 1.1798529e-38
298.47375 52.19162 79.27726 9.1245017e-39
301.11661 51.157192 77.705994 6.5462428e-39
305.82669 52.19162 79.27726 8.2983228e-39
309.72272 52.384209 79.569794 7.6529561e-39
312.94821 52.000443 78.986862 1.1893599e-38
181.74275 58.222683 82.618446 5.8987295e-39
187.60616 56.386349 80.012665 5.1626035e-39
192.06908 55.663445 78.986862 5.3480836e-39
195.1291 56.281929 79.864494 7.9266774e-39
197.76884 57.452251 81.525192 8.6678339e-39
201.54956 57.452251 81.525192 8.5738447e-39
204.90404 58.000462 82.303108 1.1247878e-38
208.72084 58.000462 82.303108 8.021031e-39
212.68007 57.779926 81.990166 8.5727727e-39
216.22551 58.222683 82.618446 1.179925e-38
220.5089 57.343849 81.371376 1.4287463e-38
224.47513 56.91431 80.761848 1.4013395e-38
228.42249 56.386349 80.012665 1.6134988e-38
232.39436 55.561684 78.842461 1.3643534e-38
236.12675 55.258621 78.412415 1.3644253e-38
239.83704 54.859642 77.84626 1.4012344e-38
243.49413 54.466381 77.288223 8.4758869e-39
247.17456 52.672863 74.743202 7.3717001e-39
250.66022 54.271858 77.012192 8.4784092e-39
254.29297 55.058407 78.128311 1.3181828e-38
257.93051 55.158333 78.270103 1.2169488e-38
261.51849 54.958843 77.98703 1.3459871e-38
264.99951 54.466381 77.288223 1.3922642e-38
268.6171 54.564167 77.426979 1.3456623e-38
272.1283 54.368946 77.149963 1.1892196e-38
275.47821 53.886951 76.466003 9.9564232e-39
278.87076 53.601837 76.061424 8.5695245e-39
282.92065 54.466381 77.288223 1.3277297e-38
286.63617 54.662304 77.566238 1.2997437e-38
288.76901 52.672863 74.743202 1.3088919e-38
291.58655 51.863892 73.595268 1.060427e-38
296.75482 53.886951 76.466003 9.217405e-39
300.21188 53.791576 76.330666 7.7426406e-39
304.52374 54.564167 77.426979 7.5586207e-39
308.01025 54.466381 77.288223 6.9146835e-39
311.92743 54.760796 77.705994 8.6656872e-39
191.91661 55.945148 74.485023 9.0323089e-39
193.41631 57.946766 77.149963 7.7455259e-39
197.08878 57.843288 77.012192 6.5459262e-39
199.85429 58.788097 78.270103 7.4671328e-39
202.88551 59.544559 79.27726 7.2813136e-39
206.15903 60.096924 80.012665 7.4664251e-39
210.09174 59.764282 79.569794 9.9557071e-39
213.91492 59.544559 79.27726 1.1983637e-38
217.88655 59.002262 78.555244 1.3181115e-38
222.03885 57.946766 77.149963 1.3182558e-38
225.61667 57.946766 77.149963 1.2443912e-38
229.73819 56.432476 75.13385 1.4108845e-38
233.01538 57.129173 76.061424 1.4010535e-38
236.79881 56.041939 74.613892 8.5742104e-39
240.19115 56.432476 75.13385 1.0505644e-38
243.83653 54.995316 73.220421 6.3575482e-39
247.24149 54.809208 72.972633 5.9887629e-39
250.63092 55.276863 73.595268 1.2810521e-38
254.11409 56.23653 74.872963 1.6225391e-38
257.59952 56.334332 75.003181 1.4010888e-38
261.09708 56.432476 75.13385 1.3457361e-38
264.50558 56.139065 74.743202 1.7327406e-38
267.87881 55.84869 74.356598 1.3181834e-38
271.36392 55.945148 74.485023 1.4107055e-38
274.77539 55.84869 74.356598 8.2932991e-39
277.10217 53.629539 71.402031 8.3858521e-39
281.24103 55.088844 73.344948 1.0694006e-38
285.54926 56.53096 75.264969 1.3366972e-38
288.76901 56.139065 74.743202 1.2351e-38
291.51572 55.182693 73.469894 1.4382552e-38
295.15363 55.466167 73.847305 1.2814488e-38
298.33002 55.182693 73.469894 1.2075835e-38
302.18164 55.656773 74.101082 8.2958144e-39
306.49167 56.53096 75.264969 7.8352118e-39
309.77344 56.334332 75.003181 5.8065338e-39
191.61409 59.708752 74.872963 5.3477137e-39
194.41075 60.443306 75.794075 6.7295915e-39
197.08878 61.414715 77.012192 5.8076198e-39
200.39447 61.745495 77.426979 6.2689623e-39
202.44846 63.807499 80.012665 8.0203065e-39
206.56198 63.221031 79.27726 7.9295739e-39
210.3114 63.10503 79.131798 1.0509237e-38
214.82028 61.634842 77.288223 1.115425e-38
218.68512 61.087463 76.60183 1.3001023e-38
222.13853 61.305244 76.874916 1.3736808e-38
226.08722 60.337265 75.661102 1.3278365e-38
229.73819 59.916798 75.13385 1.3738992e-38
233.59407 58.589848 73.469894 1.2815931e-38
237.02333 58.490208 73.344948 1.3735005e-38
240.4247 58.490208 73.344948 1.2538254e-38
243.92929 57.512108 72.118439 8.4776819e-39
247.26921 57.608444 72.239243 7.6526002e-39
250.62665 58.291935 73.096321 1.1339344e-38
254.04388 58.689831 73.595268 1.1985799e-38
257.534 59.296967 74.356598 1.1523735e-38
261.13586 60.126297 75.396553 8.3883856e-39
264.43054 59.296967 74.356598 1.0417066e-38
267.81738 59.093197 74.101082 1.3735027e-38
271.00122 58.390903 73.220421 1.3271869e-38
274.5217 58.689831 73.595268 8.2904054e-39
276.19156 55.027584 69.002922 1.24479e-38
280.6673 57.416096 71.998047 7.2812968e-39
285.36411 59.708752 74.872963 1.585299e-38
288.50211 59.194908 74.228622 1.6316858e-38
291.23471 58.193302 72.972633 1.1799601e-38
294.84647 58.490208 73.344948 1.2995642e-38
297.92181 58.095001 72.849373 1.0139024e-38
302.45203 59.39938 74.485023 7.5593368e-39
306.00299 59.502148 74.613892 4.9782123e-39
309.87756 59.916798 75.13385 5.0714967e-39
