# .PCD v0.7 - Point Cloud Data file format
VERSION 0.7
FIELDS x y z rgb
SIZE 4 4 4 4
TYPE F F F F
COUNT 1 1 1 1
WIDTH 1012
HEIGHT 1
VIEWPOINT 0 0 0 1 0 0 0
POINTS 1012
DATA ascii
-71.482445 -216.81503 195.14401 2.3418047e-38
-59.598755 -198.79907 182.7408 2.3509879e-38
-51.174232 -190.52716 178.94949 2.3509883e-38
-44.728577 -189.52533 181.96974 2.3509886e-38
-42.030121 -208.142 204.39255 2.3509886e-38
-34.307877 -206.33856 207.34052 2.3509886e-38
-27.291527 -211.71152 217.81226 2.3509886e-38
-18.827728 -209.84279 221.16322 2.3509886e-38
-10.425217 -214.6226 231.86467 2.3509886e-38
-1.2608261 -237.31866 262.96848 2.3509886e-38
8.8694153 -220.46931 250.73737 2.3509886e-38
17.515366 -198.50098 231.86467 2.3509886e-38
30.803535 -221.73853 266.215 2.3509886e-38
42.279816 -219.63586 271.23792 2.3509886e-38
58.713928 -235.57333 299.49185 2.3509886e-38
82.203033 -220.16194 297.42639 2.3509886e-38
109.21405 -247.39154 345.01462 2.3509886e-38
126.09895 -245.28197 353.4986 2.3509886e-38
-69.988182 -192.43254 179.69511 1.0697604e-38
-65.785362 -197.31122 188.32677 1.2450062e-38
-55.5522 -184.10303 179.69511 2.0197705e-38
-47.737503 -177.71683 177.47665 2.3509886e-38
-44.053108 -188.3288 192.53049 2.341805e-38
-38.375366 -194.27409 203.42844 2.3509886e-38
-30.062279 -188.66933 202.47337 2.3509886e-38
-22.456474 -188.39915 207.34052 2.3509886e-38
-14.693161 -190.93744 215.63414 2.3509886e-38
-6.4165726 -197.80823 229.39803 2.3509886e-38
2.9060822 -199.93594 238.26976 2.3509886e-38
12.476891 -194.41362 238.26976 2.3509886e-38
23.201355 -198.77515 250.73737 2.3509886e-38
34.68454 -201.15021 261.37473 2.3509886e-38
51.772682 -223.54337 299.49185 2.3509886e-38
60.049553 -203.86081 281.87469 2.3509886e-38
83.358002 -230.4669 329.21243 2.3509886e-38
99.623741 -229.85532 339.58133 2.3509886e-38
121.9028 -238.91597 365.4816 2.3509886e-38
-70.342697 -175.6976 170.46178 7.6522485e-39
-64.257553 -173.8078 172.50731 8.1132266e-39
-60.218784 -178.37148 181.20515 7.5600529e-39
-52.281136 -172.00363 178.94949 8.0206667e-39
-48.515343 -180.59523 192.53049 1.0418859e-38
-43.500572 -187.87518 205.36584 1.2356776e-38
-35.590408 -184.87621 207.34052 2.3050708e-38
-27.660919 -182.7059 210.37477 2.3509886e-38
-20.405037 -188.88689 223.45506 2.3509886e-38
-11.733276 -188.59377 229.39803 2.3509886e-38
-2.6454773 -192.49213 240.93201 2.3509886e-38
7.071785 -187.95816 242.28555 2.3509886e-38
17.910736 -194.35335 258.24448 2.3509886e-38
29.337948 -195.38802 267.8685 2.3509886e-38
41.920296 -197.77876 280.04434 2.3509886e-38
54.9533 -197.70731 289.4418 2.3509886e-38
66.57959 -190.99898 289.4418 2.3509886e-38
95.513718 -225.07629 353.4986 2.3509886e-38
118.45124 -234.15723 381.65335 2.3509886e-38
-78.317688 -177.99657 179.69511 7.0983502e-39
-81.645576 -199.61548 206.34846 6.9136016e-39
-73.007652 -193.90521 205.36584 6.7295677e-39
-65.381226 -190.9642 207.34052 6.6373693e-39
-55.195244 -180.09775 200.5899 6.9136016e-39
-48.491196 -180.48552 206.34846 7.6518842e-39
-40.395889 -176.54776 207.34052 9.1270156e-39
-33.350143 -178.61197 215.63414 7.8344846e-39
-25.584 -179.91116 223.45506 1.511903e-38
-17.141151 -180.33858 230.62476 1.3278354e-38
-8.4659805 -188.06766 247.85533 2.2775202e-38
1.4646072 -179.23294 243.65439 2.3509886e-38
12.07003 -186.21027 261.37473 2.3509886e-38
23.274185 -185.78223 269.54266 2.3509886e-38
37.628868 -198.10767 297.42639 2.3509886e-38
45.496849 -175.48148 272.95462 2.3509886e-38
66.080132 -197.9743 319.45798 2.3509886e-38
83.227615 -200.99213 336.92834 2.3509886e-38
113.62799 -226.85736 395.65897 2.3509886e-38
-82.482437 -170.77858 179.69511 7.3742113e-39
-74.952148 -165.92249 178.94949 7.3734924e-39
-77.033722 -183.9046 203.42844 6.9128772e-39
-68.539124 -178.34854 202.47337 6.7284887e-39
-60.406174 -173.65585 202.47337 6.5451765e-39
-53.529812 -173.0248 207.34052 6.91288e-39
-47.968788 -178.51846 220.03484 6.8206843e-39
-39.945671 -177.03165 224.6189 6.5451765e-39
-32.802498 -182.26816 238.26976 6.6362945e-39
-23.10405 -175.77472 236.96059 6.6377322e-39
-14.048973 -176.08783 245.03879 7.0061546e-39
-4.3040924 -174.37161 250.73737 7.282387e-39
5.8353653 -170.5434 253.68723 1.2539344e-38
17.242596 -177.16985 272.95462 1.5211944e-38
29.128403 -176.42677 281.87469 2.3234018e-38
43.893349 -184.35287 305.86401 2.3509883e-38
54.629505 -172.3739 297.42639 2.3509886e-38
76.01255 -188.93445 339.58133 2.3509886e-38
97.315475 -196.53963 368.60538 2.3509886e-38
112.1216 -187.99655 368.60538 2.3509886e-38
131.42073 -185.8058 381.65335 2.3509886e-38
-117.33145 -209.65668 224.6189 6.2675078e-39
-89.919846 -180.44812 203.42844 5.8987252e-39
-81.748535 -175.73331 203.42844 5.8987252e-39
-76.462608 -177.7251 211.40602 5.8990812e-39
-65.098846 -165.52292 202.47337 6.7281202e-39
-63.196568 -178.42105 224.6189 7.0969027e-39
-55.921635 -178.80269 231.86467 7.280215e-39
-49.537758 -184.33008 246.43901 7.5568018e-39
-39.638809 -178.61841 246.43901 6.6362903e-39
-30.614563 -177.99223 253.68723 6.5440947e-39
-20.791374 -175.20444 258.24448 6.6362903e-39
-11.011673 -178.85823 272.95462 6.2675106e-39
-0.050521851 -182.95343 289.4418 5.9909237e-39
11.199928 -170.52286 280.04434 5.6228628e-39
24.345814 -177.89423 303.71005 5.8076226e-39
36.037647 -168.48221 299.49185 6.5448191e-39
50.523632 -169.79489 314.79437 6.7266923e-39
69.790756 -179.53516 347.797 1.4476897e-38
81.143517 -166.11577 336.92834 2.3142544e-38
106.30427 -177.74808 378.30551 2.3509886e-38
119.4052 -166.06671 371.78299 2.3509886e-38
141.66653 -166.03816 392.06207 2.3509886e-38
-90.780754 -165.26102 195.14401 6.6359245e-39
-86.873131 -168.35614 204.39255 6.3593377e-39
-79.797668 -165.97888 207.34052 5.8983623e-39
-82.130379 -185.21584 238.26976 5.8068855e-39
-74.199326 -183.75439 243.65439 6.0827508e-39
-66.672302 -184.35663 252.20367 5.9894789e-39
-56.541805 -178.51137 252.20367 5.8061667e-39
-46.141464 -171.66223 250.73737 5.5295826e-39
-38.061455 -175.00838 264.58176 5.2544376e-39
-29.419083 -181.09753 283.72913 5.4377499e-39
-19.15654 -185.50548 301.58621 5.9912768e-39
-6.9452972 -176.05339 297.42639 6.6359245e-39
6.0437393 -204.4017 359.39023 7.0958265e-39
17.554035 -168.06189 308.04877 6.3593405e-39
33.789364 -181.68648 347.797 6.2667917e-39
44.195499 -160.66853 321.84201 5.714334e-39
61.72995 -165.56487 347.797 5.4377499e-39
80.229317 -166.92738 368.60538 5.2529957e-39
94.230049 -157.04205 365.4816 6.9135792e-39
116.83148 -159.37657 392.06207 5.4384716e-39
151.07495 -143.81799 399.32248 2.0937416e-38
-119.06174 -178.58957 209.35353 7.8326615e-39
-98.883041 -163.33508 202.47337 7.0961782e-39
-92.046516 -160.90871 205.36584 6.6362805e-39
-91.178505 -169.90305 223.45506 6.267142e-39
-89.633553 -179.61441 243.65439 5.8061639e-39
-81.692612 -177.98965 249.28802 5.7139682e-39
-76.076721 -182.7771 264.58176 6.8188739e-39
-65.049934 -175.56786 262.96848 6.7266768e-39
-61.204605 -190.36703 295.38922 5.8054408e-39
-61.047081 -227.06822 365.4816 9.7630342e-39
-47.575989 -224.30006 375.0159 6.4493893e-39
-33.990219 -225.4088 392.06207 5.3459018e-39
-2.4060669 -199.96393 378.30551 6.2660658e-39
12.461746 -186.29356 368.60538 5.8076086e-39
27.267872 -177.75049 368.60538 5.437031e-39
39.698849 -159.65536 347.797 4.9767689e-39
52.817249 -149.18831 342.2764 8.6645969e-39
71.078728 -150.83211 365.4816 5.5285008e-39
91.167618 -151.33916 388.52997 5.8061667e-39
-105.75085 -151.3671 191.67479 6.7273971e-39
-105.05537 -157.41931 205.36584 7.2805709e-39
-98.685982 -155.62384 209.35353 6.8195927e-39
-95.860794 -160.09779 222.30324 6.6362805e-39
-93.692657 -166.99686 239.59349 5.8976364e-39
-86.96759 -167.01086 247.85533 5.6217726e-39
-81.707603 -171.0997 262.96848 6.9110681e-39
-77.269722 -179.21068 285.60812 6.8188725e-39
-70.967247 -186.15195 308.04877 6.8188725e-39
-65.624771 -200.49385 345.01462 6.2656987e-39
32.422459 -149.29712 356.42007 2.3509886e-38
44.183071 -133.32352 336.92834 9.1237772e-39
63.6875 -138.49889 371.78299 9.7662516e-39
-124.53426 -156.45454 202.47337 7.1876564e-39
-107.79776 -140.54468 187.50795 6.8188767e-39
-108.26839 -147.06918 202.47337 7.0958153e-39
-103.03793 -146.50336 208.34216 6.5422856e-39
-100.49504 -150.39311 221.16322 6.7284747e-39
-98.697342 -156.50342 238.26976 6.45009e-39
-91.658524 -155.27032 245.03879 5.9894761e-39
-88.886337 -162.51874 266.215 7.4645978e-39
-81.724319 -163.40965 278.23761 7.6482702e-39
-80.404068 -178.88937 317.10904 7.2802065e-39
-73.036789 -185.15408 342.2764 5.8987154e-39
-65.529137 -195.8761 378.30551 6.4508102e-39
39.125153 -128.84955 362.41031 5.0693149e-39
-113.1273 -134.17966 189.15276 6.7273957e-39
-111.91027 -137.64383 200.5899 6.542287e-39
-108.39026 -138.80524 209.35353 5.9898321e-39
-107.27122 -143.72052 224.6189 6.6352015e-39
-105.97618 -149.409 242.28555 6.4504543e-39
-97.893951 -146.25864 246.43901 5.8065198e-39
-95.056335 -151.82544 266.215 6.1753023e-39
-92.971497 -160.51822 293.37979 5.9905551e-39
-87.113098 -164.93896 314.79437 5.8983595e-39
-79.704506 -168.72733 336.92834 5.7139682e-39
-74.954514 -182.27928 381.65335 6.4508102e-39
28.565258 -106.25607 336.92834 8.2025006e-39
42.430466 -99.222343 339.58133 4.8849292e-39
-120.14603 -129.41994 193.39384 6.0820277e-39
-117.10396 -130.19208 201.52724 5.529577e-39
-110.55892 -127.306 204.39255 6.0820277e-39
-112.47717 -134.69804 224.6189 5.2529929e-39
-112.85966 -141.26411 245.03879 5.7146899e-39
-104.80337 -137.9361 249.28802 5.8065198e-39
-100.60532 -140.26628 264.58176 5.8054408e-39
-97.775665 -145.75909 287.51218 5.0693205e-39
-93.724884 -151.19075 312.51324 5.4373814e-39
-86.835022 -153.99057 334.3165 5.7139682e-39
-78.911682 -157.21036 359.39023 6.0816718e-39
21.777153 -97.282471 353.4986 1.5481617e-38
-122.43218 -119.50806 189.98602 4.7927308e-39
-123.5061 -123.83311 204.39255 5.3441067e-39
-116.959 -120.81369 207.34052 6.1742219e-39
-116.46986 -124.37994 222.30324 5.4363024e-39
-115.90466 -128.50093 239.59349 4.8860054e-39
-108.69614 -125.7422 245.03879 5.528498e-39
-107.39634 -130.43881 266.215 5.1600714e-39
-105.1402 -135.11105 289.4418 5.1615161e-39
-100.24154 -137.64034 310.26495 5.5288539e-39
-95.322319 -141.65988 336.92834 5.8972805e-39
-88.719833 -145.19429 365.4816 6.3582587e-39
13.584202 -83.08316 353.4986 1.0229374e-38
30.53684 -82.31176 388.52997 9.1216066e-39
-124.10191 -109.46557 185.89149 4.9771249e-39
-130.09293 -117.29073 207.34052 5.7128892e-39
-124.76361 -115.25581 212.44743 5.435938e-39
-125.5037 -119.13507 229.39803 5.7132438e-39
-122.1362 -119.54106 240.93201 5.7139682e-39
-115.02893 -116.56178 246.43901 5.8054408e-39
-114.27171 -120.48926 267.8685 5.0675198e-39
-111.10287 -122.66154 287.51218 6.0827508e-39
-105.16277 -122.53303 303.71005 6.5422856e-39
-100.76945 -125.19199 329.21243 7.0961796e-39
-94.003944 -126.23451 353.4986 5.991274e-39
-84.662308 -125.2267 375.0159 5.4391792e-39
5.574007 -71.218887 365.4816 7.464595e-39
20.783035 -64.385124 375.0159 9.6754951e-39
180.85515 23.771675 395.65897 9.1305791e-39
191.47794 32.059402 385.06097 9.7755856e-39
208.8094 41.353092 388.52997 1.051387e-38
212.90735 47.775497 368.60538 1.0698984e-38
222.02065 54.910618 359.39023 1.0330201e-38
223.42357 59.75444 339.58133 1.0329125e-38
240.85687 68.706825 345.01462 1.199118e-38
254.71542 76.703156 345.01462 1.5126571e-38
277.45242 87.499466 356.42007 1.6967963e-38
-127.31276 -101.12691 184.30269 5.0678744e-39
-126.9632 -102.55273 195.14401 5.5288539e-39
-127.7988 -105.16804 209.35353 4.8842076e-39
-125.48079 -105.43407 220.03484 6.1735031e-39
-127.72022 -109.86332 240.93201 6.7273971e-39
-120.74059 -106.66283 246.43901 5.7143242e-39
-112.12304 -102.11823 249.28802 5.6217726e-39
-116.21692 -109.65076 283.72913 7.0976244e-39
-117.15187 -115.20128 317.10904 5.3459074e-39
-101.43098 -104.77024 308.04877 4.7019743e-39
-94.454712 -103.54768 326.71838 4.7030477e-39
-82.582352 -97.45195 331.74484 4.9796318e-39
-67.694656 -87.738449 324.26187 5.3491374e-39
-55.504372 -81.447891 329.21243 5.2558642e-39
-45.03054 -78.618973 350.6246 4.7945259e-39
-30.946665 -70.492622 350.6246 6.1738702e-39
-16.592989 -61.368423 345.01462 5.8987281e-39
-2.7344589 -53.372105 345.01462 6.083841e-39
11.397614 -46.491581 353.4986 7.5578865e-39
25.596928 -38.29863 353.4986 5.437387e-39
41.145264 -31.126207 365.4816 1.2629009e-38
53.124657 -21.55929 347.797 9.5847554e-39
67.094955 -13.498482 347.797 1.5577111e-38
83.767426 -5.6189308 359.39023 1.2262757e-38
100.72143 2.7800713 368.60538 9.4965394e-39
118.56774 11.621124 378.30551 1.1248968e-38
128.14319 19.532341 362.41031 1.37368e-38
136.94641 26.805557 347.797 1.0786906e-38
147.35175 34.042744 339.58133 9.9549448e-39
159.73427 41.585697 336.92834 8.7618022e-39
168.01747 47.897804 326.71838 1.0236918e-38
166.04597 50.847569 299.49185 9.1309351e-39
176.84785 57.390274 297.42639 9.4993617e-39
174.36467 59.370255 274.69318 9.7770303e-39
194.05046 68.804466 287.51218 9.7777436e-39
186.9084 68.607338 261.37473 1.4666975e-38
215.70993 81.587746 285.60812 1.5951957e-38
-131.5843 -93.723846 184.30269 5.5288539e-39
-131.48601 -94.714203 195.14401 5.7125249e-39
-128.89665 -94.020279 203.42844 5.0685988e-39
-129.91765 -96.105377 218.91791 6.1742233e-39
-132.56366 -99.628998 239.59349 7.0961782e-39
-125.02341 -95.670502 243.65439 6.173873e-39
-117.90073 -92.104843 249.28802 5.0686016e-39
-106.65434 -85.340561 246.43901 4.7026932e-39
-99.601143 -81.970932 253.68723 4.794886e-39
-91.565529 -77.924805 259.80017 4.7948888e-39
-88.602379 -78.526169 283.72913 5.8108344e-39
-77.716858 -72.426743 285.60812 5.7171968e-39
-64.535027 -64.109016 278.23761 5.8093953e-39
-54.772274 -59.187798 285.60812 6.2660658e-39
-45.091698 -54.743565 297.42639 6.5451709e-39
-33.844933 -48.861107 303.71005 7.3745798e-39
-21.954741 -42.419548 308.04877 7.4667754e-39
-9.3800535 -34.539833 301.58621 6.7292104e-39
2.7728271 -27.940826 305.86401 7.9270333e-39
14.848145 -20.560251 301.58621 1.1246446e-38
26.775009 -13.476223 299.49185 1.1981482e-38
38.804985 -6.5349712 299.49185 1.0047533e-38
51.190445 0.40912247 301.58621 1.2814139e-38
62.431381 7.2968597 297.42639 1.0417771e-38
75.418648 14.388706 301.58621 1.2999601e-38
86.924881 21.230032 299.49185 7.3756644e-39
99.646843 28.368286 301.58621 1.4199234e-38
108.71983 34.39595 293.37979 1.2074388e-38
121.32967 41.477707 295.38922 1.5491426e-38
131.39493 47.670849 291.39749 1.3920839e-38
134.89658 51.304623 274.69318 7.5607549e-39
141.42642 55.891151 266.215 9.5912084e-39
144.96115 59.140625 253.68723 8.6724863e-39
156.06931 65.405006 255.18832 8.7628784e-39
161.54041 69.270035 247.85533 1.0421672e-38
164.86378 72.113403 238.26976 8.3962539e-39
167.05113 74.349564 228.18428 1.3919699e-38
-133.01366 -84.514908 180.44698 4.8827642e-39
-134.18727 -85.712158 192.53049 5.1611504e-39
-126.45372 -81.249924 192.53049 4.9767591e-39
-121.43066 -78.540833 196.92615 5.0703967e-39
-116.7183 -76.06057 202.47337 5.5328084e-39
-123.6828 -81.29071 230.62476 5.6221384e-39
-120.88342 -80.236282 243.65439 5.1622364e-39
-108.64117 -72.940788 238.26976 3.8725696e-39
-100.17728 -68.171738 240.93201 4.8885152e-39
-92.042145 -63.654552 245.03879 5.7193464e-39
-82.19944 -57.975349 245.03879 5.0732694e-39
-78.12751 -56.466999 264.58176 5.6235677e-39
-65.883049 -49.12923 258.24448 6.91288e-39
-53.584702 -41.647636 249.28802 7.2827415e-39
-46.529858 -38.305557 266.215 7.0979929e-39
-35.836548 -32.135559 266.215 7.3738581e-39
-25.457527 -26.290129 269.54266 6.6359274e-39
-14.910112 -20.425987 274.69318 9.0341011e-39
-3.8274937 -13.882642 271.23792 8.5724013e-39
6.6889567 -7.1892848 256.70731 1.4013398e-38
17.000362 -1.2396407 256.70731 1.4381097e-38
26.522411 4.5738745 249.28802 9.95497e-39
36.748219 10.411749 250.73737 9.5847568e-39
46.819824 16.223028 250.73737 8.0203065e-39
57.224129 22.163162 252.20367 1.2537905e-38
67.354637 28.00843 252.20367 1.4566207e-38
79.341072 34.664558 258.24448 1.3554233e-38
87.106247 39.468147 250.73737 1.4659495e-38
100.08736 46.635094 258.24448 1.5767281e-38
108.51122 51.691776 253.68723 1.7332429e-38
112.73309 54.676773 240.93201 1.4749895e-38
122.41084 60.260792 240.93201 1.0138282e-38
129.9113 64.759468 236.96059 9.5887084e-39
136.43105 68.740662 231.86467 1.0420264e-38
140.4585 71.426445 223.45506 9.4961471e-39
142.07292 72.831734 212.44743 8.6685304e-39
147.69624 76.253059 208.34216 1.0141857e-38
-138.35361 -77.918762 181.96974 5.0678758e-39
-136.21706 -76.61055 189.15276 4.0551658e-39
-127.50074 -71.598541 187.50795 4.7026932e-39
-122.63491 -68.747223 191.67479 4.6104976e-39
-114.93573 -64.304825 191.67479 3.782176e-39
-109.17748 -60.945908 195.14401 4.7963195e-39
-95.301735 -53.061726 183.51842 5.9026643e-39
-95.223923 -52.856987 198.74115 5.2580138e-39
-92.800362 -51.325615 211.40602 4.8874362e-39
-87.749786 -48.320843 220.03484 4.6115724e-39
-79.72496 -43.666725 222.30324 5.5295826e-39
-70.432434 -38.316948 221.16322 6.1763911e-39
-62.510464 -33.709713 224.6189 6.3597062e-39
-52.665096 -28.065254 221.16322 7.0972726e-39
-44.007099 -23.057652 222.30324 8.4809302e-39
-35.62859 -18.186619 225.79491 8.941181e-39
-27.27282 -13.301635 231.86467 8.1114246e-39
-18.557934 -8.1920223 239.59349 9.8624227e-39
-8.5085278 -2.5133533 228.18428 1.4014843e-38
0.64689898 2.7318563 224.6189 1.3643537e-38
9.2826052 7.6202831 215.63414 1.3829361e-38
17.854912 12.555208 214.56134 9.2195742e-39
28.006071 18.542826 226.98331 1.180035e-38
36.736824 23.555611 224.6189 1.2353149e-38
44.825439 28.174578 220.03484 9.4036053e-39
54.217022 33.617306 222.30324 1.3461312e-38
64.475883 39.585777 226.98331 1.2722659e-38
71.340485 43.473663 220.03484 1.797781e-38
80.178833 48.573357 220.03484 1.3274401e-38
88.565315 53.4006 218.91791 1.3461652e-38
94.481201 56.746101 212.44743 1.7791261e-38
105.61617 63.227268 217.81226 1.2912081e-38
111.54836 66.593788 212.44743 1.5577476e-38
117.76151 70.135651 208.34216 8.7582317e-39
124.32832 73.893425 205.36584 9.4968631e-39
130.09938 77.182991 201.52724 9.3131795e-39
133.21434 78.904053 194.26498 1.12475e-38
-139.05081 -68.865967 177.47665 4.239557e-39
-136.4129 -66.956985 183.51842 3.5974246e-39
-123.27119 -59.899796 175.3123 4.9796346e-39
-127.07731 -61.048038 191.67479 3.9662029e-39
-116.2774 -55.135368 186.69623 4.8874362e-39
-106.47357 -49.731903 182.7408 4.703768e-39
-99.555099 -45.69017 183.51842 5.3502122e-39
-96.280586 -43.278446 191.67479 4.8899571e-39
-88.581398 -38.836044 191.67479 6.4526039e-39
-81.97522 -34.858414 194.26498 7.0050756e-39
-74.507614 -30.493343 195.14401 6.6370148e-39
-69.499367 -27.073059 203.42844 6.0838438e-39
-62.20837 -22.679178 206.34846 7.6511695e-39
-53.408691 -17.727055 204.39255 8.2969046e-39
-45.850559 -13.177251 207.34052 9.7723878e-39
-37.164764 -8.292038 205.36584 1.0785098e-38
-29.053993 -3.5492229 206.34846 9.1252122e-39
-20.865231 1.2391939 207.34052 1.0787277e-38
-12.536787 6.0446758 207.34052 1.4472567e-38
-4.1485095 10.695889 204.39255 1.4750261e-38
4.0233836 15.288136 202.47337 1.5024288e-38
11.987486 19.703302 199.66124 1.4471851e-38
19.643696 23.888424 196.03104 1.7328474e-38
27.393345 28.303139 195.14401 2.1475482e-38
35.716724 33.277679 197.82948 1.0045734e-38
44.479263 38.570438 201.52724 9.5876449e-39
52.574196 43.241188 201.52724 1.1337197e-38
61.824738 48.824547 205.36584 1.5214122e-38
68.127365 52.09581 199.66124 1.4846054e-38
72.139595 53.737869 189.15276 1.1987964e-38
80.443115 58.636169 190.82668 1.2904151e-38
84.733879 60.643898 183.51842 1.4381813e-38
93.700317 66.021011 186.69623 1.4937535e-38
100.33087 69.744186 185.09369 1.3093224e-38
108.69874 74.675041 186.69623 9.2159588e-39
112.30847 76.357635 180.44698 9.9567609e-39
107.01888 72.093697 161.5237 1.0141156e-38
-120.2057 -50.918449 156.82483 4.6115724e-39
-116.44704 -48.338417 160.32278 5.5321007e-39
-114.69743 -46.525169 167.15825 4.242794e-39
-104.73541 -41.368244 162.13094 4.6104863e-39
-98.593597 -37.752502 162.74275 5.44061e-39
-89.032799 -32.864502 157.39719 5.717194e-39
-92.879799 -32.808743 176.7493 5.8076086e-39
-86.847946 -29.069675 178.94949 6.3604279e-39
-80.664032 -25.236359 181.20515 6.1753149e-39
-72.773849 -20.861301 179.69511 7.8355636e-39
-65.555862 -16.696552 179.69511 9.4032522e-39
-58.581966 -12.584235 180.44698 7.282387e-39
-51.986332 -8.5088654 182.7408 7.5589711e-39
-43.539078 -4.1675701 178.21004 1.0138654e-38
-37.305683 -0.038187027 182.7408 9.4940087e-39
-31.430332 4.4023495 191.67479 1.1152437e-38
-22.721313 8.4683781 183.51842 1.4474379e-38
-15.092854 12.508823 180.44698 1.0232628e-38
-7.7474198 16.484087 178.21004 1.8529549e-38
-0.56796551 19.875256 171.82004 9.5833022e-39
6.6239872 24.950956 179.69511 1.3460249e-38
13.899888 29.23753 180.44698 1.7239174e-38
20.885906 33.005409 178.21004 1.6314689e-38
27.255848 36.091766 173.20012 1.0785098e-38
35.94524 42.136665 181.96974 1.355169e-38
42.360901 45.396404 178.21004 1.3554202e-38
49.519234 49.526733 178.21004 1.5119018e-38
54.428455 51.527817 171.1382 1.5765115e-38
61.060432 55.274902 170.46178 1.3186888e-38
68.176994 59.460678 171.1382 1.6228276e-38
75.350281 63.679806 171.82004 1.087694e-38
80.331665 66.082382 167.80867 1.5487826e-38
89.153595 71.644272 171.82004 1.1618131e-38
96.05526 75.626503 171.82004 8.9433657e-39
95.008026 73.462471 158.55452 1.7238813e-38
101.37684 77.137253 158.55452 1.2815555e-38
-124.26537 -46.075684 149.74593 5.0707456e-39
-117.0313 -42.165833 148.20216 4.3342624e-39
-114.21835 -39.825859 152.39162 4.2417122e-39
-112.05669 -37.62336 157.97372 4.6104948e-39
-105.3254 -33.838093 157.39719 4.3349869e-39
-100.4698 -30.637398 159.72899 4.6090626e-39
-92.680756 -26.542179 157.39719 6.728839e-39
-86.993423 -23.062563 158.55452 6.4515333e-39
-82.134438 -19.750849 161.5237 6.8214088e-39
-77.385361 -16.375237 165.23689 9.03482e-39
-71.020241 -12.593832 165.87242 7.9277564e-39
-64.110901 -8.7159252 165.23689 7.7440812e-39
-58.141979 -4.9430847 167.15825 8.7575199e-39
-52.032604 -1.0814724 169.12482 9.4028977e-39
-45.417313 2.8494663 169.79066 9.402162e-39
-38.295631 6.7316599 168.46417 8.5731286e-39
-32.15683 10.847988 171.82004 1.0327012e-38
-24.956884 14.65506 169.79066 8.5734747e-39
-17.995049 18.445021 168.46417 1.6595613e-38
-10.929338 21.754622 163.98033 1.4842077e-38
-4.1835155 24.619068 157.97372 8.5713279e-39
2.2188597 29.024609 162.13094 1.6776387e-38
8.8985939 33.41029 165.23689 1.7054771e-38
15.243793 36.539948 162.13094 1.6315415e-38
21.513628 39.848202 160.32278 8.4784092e-39
28.482887 44.389038 163.35919 1.3183622e-38
35.31221 48.542927 164.60622 1.3549546e-38
41.924103 52.357964 164.60622 8.7571639e-39
47.806129 55.328297 162.13094 8.8507973e-39
52.540901 57.152245 156.82483 1.7243865e-38
59.489204 61.457382 158.55452 1.6040295e-38
65.616776 64.893585 157.97372 1.3920146e-38
69.913506 66.603157 153.47626 1.2079081e-38
74.487846 68.693481 150.2677 1.6412312e-38
82.53688 73.980598 154.02438 1.733028e-38
85.664291 74.876236 148.7132 1.5760795e-38
92.27417 78.866837 149.74593 9.8634905e-39
-116.78719 -36.626926 136.91057 3.6896161e-39
-114.93655 -34.550621 141.39943 3.6878252e-39
-109.978 -31.47987 142.33276 4.2417178e-39
-106.72641 -28.847504 145.69875 4.4250273e-39
-103.67605 -26.1782 149.74593 6.269314e-39
-97.661057 -22.707569 149.74593 5.9919999e-39
-92.610771 -19.439444 151.3222 6.7292132e-39
-85.631081 -15.766323 149.74593 7.8355579e-39
-79.616096 -12.295696 149.74593 7.9277564e-39
-74.375854 -8.917963 151.3222 6.913959e-39
-67.352257 -5.3359165 149.22778 8.4809302e-39
-62.438332 -1.9103527 151.85503 9.3114097e-39
-57.97163 1.6557999 156.25662 1.032521e-38
-51.883106 5.2965107 156.82483 1.0418143e-38
-46.256596 9.0630302 159.13959 1.2078369e-38
-39.284439 12.565895 156.82483 8.5734915e-39
-32.512207 15.96832 154.57645 1.5026482e-38
-25.840099 19.206696 151.85503 1.576259e-38
-19.60235 22.567276 150.79311 1.4660193e-38
-13.404693 25.791632 149.22778 7.5596927e-39
-7.0681181 27.898752 142.33276 1.308927e-38
-1.3781929 31.82782 145.20818 9.4950933e-39
4.5463657 35.918907 148.20216 9.6794902e-39
10.75813 40.323742 151.85503 9.6787685e-39
16.284441 42.351982 146.6899 9.8598863e-39
22.638687 46.704941 149.74593 9.3110538e-39
28.753511 50.350395 150.2677 1.1524101e-38
32.629326 50.490532 140.93735 7.4703557e-39
40.542873 56.919182 149.22778 8.2054139e-39
46.058926 59.757473 147.69461 1.0050065e-38
51.116238 62.116913 145.20818 1.3091442e-38
56.192162 64.612175 143.2785 1.327798e-38
62.993774 69.080414 145.69875 1.5855524e-38
67.255676 70.78331 142.33276 1.3183635e-38
71.325119 72.409302 139.1188 1.5765856e-38
75.452858 74.197548 136.47731 1.5668603e-38
82.768356 79.113159 139.56902 1.4936091e-38
-116.9892 -30.356556 133.51959 3.4130334e-39
-113.02567 -27.60384 135.19382 4.6094186e-39
-110.00922 -25.019503 138.22702 4.8867355e-39
-105.47105 -22.027651 139.56902 5.5306672e-39
-100.84393 -18.97714 140.93735 5.7150585e-39
-95.80896 -15.814028 141.86456 5.6235817e-39
-88.652458 -12.323381 139.56902 6.1764023e-39
-84.690735 -9.2685928 142.33276 7.4660538e-39
-78.455658 -5.9306335 141.39943 6.0842067e-39
-73.01532 -2.6621838 141.86456 7.3749455e-39
-67.096207 0.6237278 141.39943 8.2965417e-39
-61.821877 3.9266548 142.33276 7.0972726e-39
-56.290432 7.2493935 142.80406 8.2054447e-39
-50.891312 10.629522 143.75609 8.6642424e-39
-45.116928 13.961323 143.75609 7.8337629e-39
-38.953011 17.121906 142.33276 1.0968781e-38
-33.126465 20.353542 141.86456 1.3645341e-38
-27.16003 23.410482 140.47827 1.5395249e-38
-21.309074 26.408251 139.1188 1.7234131e-38
-15.422457 29.069929 136.47731 1.2265303e-38
-9.6949997 31.437155 133.1075 6.6344826e-39
-4.4584303 35.396133 136.47731 1.8527754e-38
1.040041 39.179161 138.67148 1.557892e-38
6.5262508 41.85479 136.91057 1.6131737e-38
12.025667 45.027935 136.91057 1.2810172e-38
17.251257 47.447937 134.77133 9.7702383e-39
23.097828 51.537827 137.34659 1.5672215e-38
28.078234 53.695061 134.77133 1.5671484e-38
34.350479 58.275513 138.22702 1.0786554e-38
40.290176 62.07605 139.56902 1.0508158e-38
44.597435 63.462387 135.61896 1.3738239e-38
50.044968 66.605598 135.61896 1.4197436e-38
53.637131 67.416779 131.08458 1.5949155e-38
58.546623 70.02919 130.29253 9.5858498e-39
62.45932 71.536095 127.59416 1.4475466e-38
67.385147 74.273575 127.21778 1.1431557e-38
73.36084 78.144127 128.7368 1.9360017e-38
-111.94783 -21.369518 130.29253 5.1622392e-39
-107.03762 -18.405361 130.68736 5.7150585e-39
-102.72201 -15.517521 131.88632 6.3604279e-39
-93.975754 -12.01973 127.21778 6.4526235e-39
-92.409401 -9.4329681 132.29088 6.5455408e-39
-86.829201 -6.3474274 131.88632 7.7440798e-39
-81.781693 -3.3008194 132.29088 6.6384511e-39
-77.17807 -0.23693085 133.51959 7.006163e-39
-71.153984 2.8313293 132.29088 7.1909102e-39
-66.451645 5.9521751 133.51959 7.4667754e-39
-60.712509 8.9910545 132.69794 1.0231924e-38
-55.898293 12.178986 133.93425 8.9422853e-39
-51.315254 15.524208 136.04678 7.7437323e-39
-46.288593 18.855774 137.34659 1.4381099e-38
-38.56115 20.844139 129.90009 1.3458418e-38
-33.243198 23.783165 129.50999 1.1985831e-38
-28.041048 26.784788 129.50999 1.6780354e-38
-22.838898 29.786409 129.50999 1.437893e-38
-17.172621 31.925188 126.10184 1.1244264e-38
-11.796925 33.954285 122.86845 7.1865872e-39
-7.1254539 38.217438 127.59416 1.4194188e-38
-2.0061951 41.296841 127.97279 1.2723036e-38
3.124939 44.131878 127.59416 1.5208329e-38
8.1775532 46.674824 126.47163 9.766976e-39
12.879946 48.192749 122.86845 1.234665e-38
18.555424 53.16082 127.97279 1.5580361e-38
22.750692 53.888138 122.86845 1.3458757e-38
28.581797 58.571396 126.84361 1.1889648e-38
32.528767 59.414253 122.51939 1.465804e-38
38.658188 64.262039 126.47163 1.6408324e-38
42.735703 65.653 123.57257 1.5211588e-38
47.292824 67.93306 122.51939 1.1431918e-38
51.919182 70.372818 121.82719 1.447148e-38
56.652702 72.990189 121.48402 1.3736811e-38
60.176376 74.135147 118.80669 1.7610823e-38
66.599831 78.843491 121.82719 2.0556012e-38
-108.41672 -15.216503 122.86845 6.0849228e-39
-102.60439 -12.263992 121.82719 6.268598e-39
-97.161903 -9.387394 121.14278 5.1640455e-39
-92.817291 -6.6168709 121.82719 5.8101338e-39
-88.423302 -3.8148651 122.51939 7.8344817e-39
-85.692963 -1.0008507 125.73419 6.452992e-39
-80.642487 1.9132576 125.73419 7.4667782e-39
-73.659248 4.7039433 122.51939 6.8224906e-39
-68.543167 7.5221786 122.17232 8.7578954e-39
-64.365112 10.472406 123.57257 7.7440798e-39
-59.572147 13.374737 123.92767 9.4047039e-39
-54.751556 16.293802 124.28481 9.1255765e-39
-49.332787 19.009972 123.21951 1.2075855e-38
-44.896412 22.118584 124.64401 1.2261317e-38
-40.474609 25.374105 126.47163 1.3551701e-38
-34.191292 27.343088 122.17232 1.8624259e-38
-28.955769 29.836554 120.80344 1.4753844e-38
-23.770422 32.185608 119.13488 1.354774e-38
-18.726368 34.470657 117.5118 8.6631382e-39
-13.968098 37.093128 117.19247 7.5600585e-39
-9.3113241 40.026806 117.83286 1.5490709e-38
-4.6033735 42.992722 118.48029 1.9175634e-38
0.15404701 45.241554 117.19247 1.8896901e-38
4.887991 48.219757 117.83286 1.6040989e-38
9.390192 49.727924 115.00488 9.9538882e-39
14.199018 53.101387 116.559 1.5580005e-38
19.035294 56.258999 117.5118 1.4472923e-38
23.88567 59.305733 118.15569 1.511579e-38
29.029406 62.905922 119.79675 1.5211214e-38
32.574608 63.223724 115.31238 1.5763295e-38
38.123882 67.521133 118.15569 1.6225363e-38
42.290634 69.310143 116.559 1.521338e-38
46.972572 72.011612 116.559 1.6408681e-38
50.830235 73.520836 114.69901 1.2905994e-38
54.853905 75.377304 113.49165 1.2170576e-38
58.793755 77.195084 112.30945 2.2399599e-38
-105.11888 -11.876846 111.15162 5.1633224e-39
-101.96818 -9.4221306 112.60268 4.8863796e-39
-97.956673 -6.8481255 113.19377 6.0845584e-39
-94.15126 -4.2581902 114.09214 5.992367e-39
-89.56842 -1.6139069 114.09214 6.2685896e-39
-86.589066 1.0498238 116.24482 7.8370181e-39
-81.480499 3.7239304 115.62152 7.7433679e-39
-76.836227 6.4036598 115.62152 8.5738531e-39
-72.581116 9.1323566 116.24482 9.0344585e-39
-68.095352 11.858501 116.559 7.9281081e-39
-63.413414 14.559961 116.559 7.6511807e-39
-59.373352 17.450069 117.83286 8.296906e-39
-54.640251 20.181053 117.83286 1.0878744e-38
-49.771156 22.849606 117.5118 1.1246446e-38
-44.565224 25.297428 116.24482 1.5395616e-38
-40.003735 28.067261 116.559 1.5491413e-38
-34.574245 30.117527 114.09214 1.4840634e-38
-29.522785 32.249912 112.30945 1.5488179e-38
-24.438761 34.054726 109.73747 1.1243917e-38
-19.680292 35.957619 107.81707 7.0029148e-39
-15.743078 39.442532 110.58161 8.0163507e-39
-11.186508 41.579002 109.45895 1.4105242e-38
-6.894763 44.798111 111.15162 1.2904537e-38
-2.4553413 47.867725 112.30945 1.7513969e-38
2.0505581 50.3396 112.01774 1.4193455e-38
6.3842564 51.595669 109.18185 7.738675e-39
10.688686 53.718163 108.35886 1.6960406e-38
14.966032 55.948421 107.81707 1.5856946e-38
19.54109 59.187111 109.18185 1.6963294e-38
23.568693 60.794136 107.5482 1.5483122e-38
28.384167 64.41114 109.45895 1.5120797e-38
32.048828 65.452927 107.01446 1.6591263e-38
35.726822 66.773338 105.18739 1.7792354e-38
40.950783 70.941528 107.81707 1.3369848e-38
44.285156 71.824326 105.44456 1.2168769e-38
48.520653 74.268188 105.44456 1.2905967e-38
53.277184 77.469704 106.48599 1.7701575e-38
-101.66829 -6.9973221 104.93146 4.7938238e-39
-98.169975 -4.5989227 105.70301 6.3611467e-39
-93.238533 -2.1333847 104.93146 6.9146891e-39
-88.165588 0.29571533 103.92007 6.4526263e-39
-85.223473 2.7439156 105.44456 7.0987146e-39
-83.226349 5.3311539 108.35886 6.6373805e-39
-78.088974 7.7645302 107.28067 7.9281333e-39
-74.148636 10.302202 107.81707 7.7422917e-39
-70.345428 12.897789 108.63181 8.0203191e-39
-65.16124 15.223783 107.28067 9.0351857e-39
-62.885612 18.302059 110.86588 1.02305e-38
-59.193195 21.143339 112.30945 1.0507436e-38
-54.118225 23.501501 111.15162 7.190906e-39
-48.897346 25.680511 109.45895 1.0877292e-38
-45.422897 28.802231 111.72753 1.290705e-38
-39.901321 30.598995 108.90613 1.6778565e-38
-34.313671 31.992056 105.18739 1.7423923e-38
-29.726 34.015141 103.92007 1.2998176e-38
-26.053989 37.139614 105.96272 1.207369e-38
-20.63176 37.477585 100.29495 1.2073686e-38
-17.161875 41.141594 103.67026 1.4287827e-38
-13.123847 43.967094 104.67677 1.6777463e-38
-8.9191952 46.393162 104.67677 1.6223582e-38
-4.8318195 50.033642 107.28067 1.7423206e-38
-0.51113319 51.369984 104.93146 1.6041349e-38
3.6417236 52.900967 103.17423 1.0691809e-38
7.6939869 54.638641 101.95467 1.3827554e-38
11.958929 57.821785 103.42165 1.5025036e-38
15.960072 59.646618 102.43902 1.5949153e-38
20.122635 62.168488 102.68292 1.5675817e-38
23.849699 63.490173 100.9996 1.4657684e-38
28.507509 67.248436 103.17423 1.6316502e-38
32.65181 69.639679 103.17423 1.7700493e-38
36.020538 70.512703 100.9996 1.6680943e-38
38.981972 70.862106 98.238785 1.6595599e-38
43.522873 74.152435 99.600067 1.3090371e-38
47.523605 76.460846 99.600067 1.14265e-38
-102.60242 -2.7424088 103.42165 4.7009065e-39
-97.281731 -0.3413353 102.19627 5.254802e-39
-91.656357 1.9941673 100.52874 6.5448191e-39
-87.823029 4.334198 100.76362 5.8998183e-39
-83.971756 6.6851883 100.9996 9.3103195e-39
-82.027939 9.2647057 103.67026 9.8642317e-39
-77.491165 11.611624 103.17423 8.4802071e-39
-73.346878 14.002867 103.17423 8.7600422e-39
-69.535278 16.472929 103.67026 8.5749349e-39
-65.52858 18.921148 103.92007 1.2535371e-38
-61.206837 21.27841 103.67026 9.4950933e-39
-57.736565 23.969238 104.93146 9.2188581e-39
-53.262497 26.273357 104.42331 9.4018075e-39
-48.714172 28.486631 103.67026 1.1152457e-38
-43.812717 30.378197 101.95467 1.3369108e-38
-39.437706 32.510609 101.23669 1.4658051e-38
-34.960896 34.452576 100.06225 1.4470057e-38
-30.869978 36.686573 99.83062 1.2075859e-38
-26.797953 38.910255 99.600067 1.2165881e-38
-21.887354 39.573566 95.624893 7.5553739e-39
-18.624441 43.128647 98.688393 1.3828277e-38
-14.761669 45.729858 99.370575 1.6407956e-38
-10.820021 48.255325 99.83062 1.6040634e-38
-6.7943001 50.45229 99.600067 1.5764752e-38
-2.8130589 53.128792 100.29495 1.7605058e-38
1.1772537 53.704777 97.132492 1.1426111e-38
5.0000381 55.087494 95.624893 7.1905431e-39
8.9002972 57.6875 96.265244 1.5947333e-38
13.058561 61.286621 98.463074 1.5300533e-38
16.821594 62.851196 97.351753 1.6503403e-38
20.14097 63.251358 94.576378 1.419744e-38
24.098452 65.876732 95.202713 1.6592348e-38
28.234186 68.843086 96.265244 1.4931742e-38
31.060976 68.771584 93.1465 1.4013387e-38
34.877808 71.083939 93.348114 1.613243e-38
38.460915 72.931732 92.945747 1.3737182e-38
42.840652 76.236023 94.369423 1.3735728e-38
-97.952446 1.3170738 96.480598 5.4388401e-39
-90.241264 3.4083061 92.546844 6.7310195e-39
-87.272972 5.601326 93.348114 6.177124e-39
-84.252838 7.8326492 94.163383 7.3756644e-39
-82.635605 10.284512 96.696922 8.75788e-39
-78.575317 12.49761 96.480598 1.0049326e-38
-74.201889 14.635498 95.837395 6.731374e-39
-71.463959 17.123053 97.351753 8.8515175e-39
-69.273651 19.87281 99.83062 9.1248716e-39
-65.263657 22.186562 99.83062 1.0047177e-38
-61.253666 24.500313 99.83062 9.4032536e-39
-57.111473 26.752134 99.600067 8.6649683e-39
-53.233685 29.127811 99.83062 1.105989e-38
-48.660492 31.081818 98.688393 1.3458771e-38
-44.391632 33.141579 98.015518 1.3829381e-38
-39.821033 34.858688 96.480598 1.6133535e-38
-35.705971 36.847504 95.837395 1.3917951e-38
-31.645409 38.809967 95.202713 9.952812e-39
-27.161755 40.044083 92.945747 7.5535592e-39
-23.080122 41.571117 91.564392 6.0809585e-39
-19.737411 44.448242 93.1465 1.059926e-38
-15.892927 46.307026 92.546844 1.3178954e-38
-12.254404 48.765911 93.1465 1.336695e-38
-8.5498314 51.145676 93.550606 1.4842088e-38
-4.7508736 52.855263 92.745865 1.4563342e-38
-1.0276718 55.123352 92.945747 1.0964795e-38
2.6320267 55.716515 90.412636 1.0595298e-38
6.3166866 58.30088 91.177223 1.5854046e-38
10.042784 60.799698 91.759209 1.4749532e-38
13.612713 62.395355 90.984871 1.345877e-38
16.945635 63.302147 89.289497 1.8528812e-38
20.66054 65.780167 89.847557 1.5577824e-38
24.118788 67.441032 89.289497 1.4473293e-38
27.995167 70.237564 90.223488 1.5028992e-38
31.886089 72.939026 90.984871 1.4104512e-38
35.023544 73.955597 89.660767 1.5948801e-38
38.867443 76.510834 90.223488 1.3647488e-38
-100.63885 5.2158432 96.914223 6.819611e-39
-89.505135 6.903511 89.660767 6.2685868e-39
-86.624016 9.0568733 90.412636 6.268235e-39
-82.473618 11.082645 89.847557 5.3466459e-39
-80.371597 13.416578 91.564392 8.5752866e-39
-77.516533 15.705471 92.546844 8.0203191e-39
-74.599541 18.044012 93.550606 9.4039879e-39
-71.150482 20.30028 93.958229 8.6660403e-39
-66.650337 22.235712 92.945747 8.0199688e-39
-63.741135 24.70941 94.163383 9.031569e-39
-60.354118 27.069124 94.784241 6.0849144e-39
-56.054047 29.01087 93.958229 7.6507981e-39
-51.940456 30.985998 93.348114 1.3827575e-38
-48.824947 33.585682 94.576378 1.3185456e-38
-43.684807 34.711937 91.759209 1.4566957e-38
-39.999027 36.838615 91.759209 1.345735e-38
-34.831074 37.374882 88.013931 1.8346615e-38
-32.148659 40.488953 90.412636 1.493102e-38
-27.703857 41.370209 87.834679 9.0294236e-39
-24.028902 43.142334 87.30127 7.8355579e-39
-20.989567 46.194309 89.289497 1.603737e-38
-17.439098 48.363884 89.474747 1.6040637e-38
-14.168425 51.615566 91.564392 1.437893e-38
-10.315266 52.840233 90.035133 1.5760443e-38
-6.6570454 54.585087 89.474747 1.4011592e-38
-3.069397 56.776619 89.660767 1.3456959e-38
0.50381088 55.726562 84.895332 1.1247198e-38
3.9924755 58.852676 86.60006 1.1245357e-38
7.5162983 61.228634 87.124908 1.4935003e-38
11.12834 63.893295 88.013931 1.5763683e-38
14.428114 64.874001 86.60006 1.2631168e-38
17.835037 66.613586 86.253654 1.2722656e-38
21.342352 68.750168 86.426506 1.0971668e-38
24.326427 69.363205 84.728539 1.3459141e-38
27.784384 71.467354 84.895332 1.2536837e-38
32.013702 75.363548 87.124908 1.2076938e-38
35.088024 76.456078 86.08149 1.2818455e-38
-89.173096 10.228554 87.30127 6.3629558e-39
-84.978302 12.153503 86.60006 9.1288611e-39
-81.499756 14.160612 86.60006 7.4646118e-39
-78.335808 16.232916 86.949249 8.298348e-39
-76.857651 18.739267 89.289497 8.3905408e-39
-74.505112 21.159174 90.79332 7.4685845e-39
-69.974243 22.973276 89.660767 7.6511695e-39
-67.069946 25.314466 90.602577 8.8522616e-39
-63.564171 27.472059 90.79332 8.940465e-39
-59.416836 29.329367 90.035133 1.1337916e-38
-55.338196 31.155916 89.289497 9.493287e-39
-50.908417 32.684006 87.834679 1.1246796e-38
-47.966423 35.149254 88.921295 1.1801055e-38
-43.497776 36.458439 87.124908 1.8802536e-38
-39.677521 38.169277 86.426506 1.2628655e-38
-35.989574 39.932285 85.910019 1.2719047e-38
-32.21785 41.509956 85.062775 9.1245017e-39
-27.760712 41.910812 81.990166 7.4653349e-39
-25.185553 45.097122 84.396927 6.173873e-39
-21.752932 46.961266 84.232086 1.4840285e-38
-18.624128 49.591499 85.399658 1.6131021e-38
-14.986071 50.865719 84.232086 1.631506e-38
-11.60264 52.817947 84.232086 1.5668601e-38
-8.2839298 55.201439 84.895332 1.6223583e-38
-4.8547459 56.944839 84.562408 1.3458418e-38
-1.4083405 56.896606 81.679596 7.8305175e-39
1.9198303 60.273689 83.741417 9.9553582e-39
5.3145103 62.579079 84.232086 1.0416334e-38
8.6138191 63.907211 83.417465 1.1615949e-38
12.057821 66.353935 84.067894 1.4654451e-38
15.404625 68.169472 83.904335 1.2721552e-38
18.208103 67.997452 81.371376 1.1153862e-38
21.275908 69.230263 80.610893 8.4801931e-39
25.318394 73.431915 83.256424 1.1154969e-38
28.662632 75.361526 83.256424 1.0141179e-38
32.445328 78.34993 84.396927 1.1708143e-38
-89.210007 13.436085 85.399658 5.8998155e-39
-84.441978 15.174973 84.067894 7.0998048e-39
-80.127975 16.925438 83.096008 8.2047062e-39
-75.768257 18.600464 81.990166 6.3611495e-39
-72.474876 20.500729 81.990166 8.1143084e-39
-72.344872 23.425293 85.73922 9.3099678e-39
-69.732697 25.719242 86.7743 7.6529926e-39
-66.380722 27.786293 86.949249 7.6515324e-39
-62.38504 29.563087 86.253654 8.3887373e-39
-58.33704 31.24967 85.399658 1.1524457e-38
-55.23484 33.427536 85.910019 1.2537916e-38
-51.172386 35.000324 84.895332 1.1800336e-38
-47.66848 36.89529 84.728539 1.4661665e-38
-42.997974 37.746647 82.303108 1.6316883e-38
-39.316868 39.279362 81.525192 1.4477271e-38
-36.110428 41.246826 81.679596 1.1614503e-38
-32.460655 42.655178 80.761848 1.5486719e-38
-28.161865 42.919502 77.84626 1.0234819e-38
-25.448362 45.462284 79.131798 1.0509597e-38
-23.162292 49.191765 82.303108 1.1152454e-38
-19.448086 50.048645 80.610893 1.5025022e-38
-16.393967 52.505791 81.525192 1.4566572e-38
-12.972137 53.785244 80.610893 1.3090728e-38
-9.8819294 56.498379 81.834587 1.3364429e-38
-6.6073399 58.506058 81.990166 9.9517218e-39
-3.2220764 58.731472 79.716873 6.2657127e-39
-0.019939423 60.355923 79.423256 6.1731569e-39
3.1879425 62.542236 79.864494 1.2995296e-38
6.4078026 64.512703 80.012665 1.6501262e-38
9.6039276 66.244232 79.864494 1.4568365e-38
12.71772 67.594536 79.27726 1.1798529e-38
15.902122 69.431923 79.27726 9.1245017e-39
18.708237 69.856773 77.705994 6.5462428e-39
22.270931 73.106705 79.27726 8.2983228e-39
25.549269 75.220642 79.569794 7.6529561e-39
28.534832 76.500237 78.986862 1.1893599e-38
-88.219528 16.31712 82.618446 5.8987295e-39
-82.223145 17.656916 80.012665 5.1626035e-39
-77.996262 19.261204 78.986862 5.3480836e-39
-75.654892 21.326221 79.864494 7.9266774e-39
-73.953354 23.659164 81.525192 8.6678339e-39
-70.678658 25.548655 81.525192 8.5738447e-39
-68.047127 27.699961 82.303108 1.1247878e-38
-64.74118 29.607481 82.303108 8.021031e-39
-61.201637 31.395172 81.990166 8.5727727e-39
-58.351997 33.550571 82.618446 1.179925e-38
-54.202694 34.930073 81.371376 1.4287463e-38
-50.552643 36.540222 80.761848 1.4013395e-38
-46.869751 38.055695 80.012665 1.6134988e-38
-43.01733 39.326431 78.842461 1.3643534e-38
-39.633026 40.929276 78.412415 1.3644253e-38
-36.21994 42.437981 77.84626 1.4012344e-38
-32.855789 43.925053 77.288223 8.4758869e-39
-28.771603 44.210957 74.743202 7.3717001e-39
-26.551603 47.337963 77.012192 8.4784092e-39
-23.798155 49.834782 78.128311 1.3181828e-38
-20.697397 51.739277 78.270103 1.2169488e-38
-17.489962 53.359642 77.98703 1.3459871e-38
-14.228731 54.672798 77.288223 1.3922642e-38
-11.144196 56.56546 77.426979 1.3456623e-38
-8.0053673 58.151169 77.149963 1.1892196e-38
-4.862915 59.407875 76.466003 9.9564232e-39
-1.7819538 60.856407 76.061424 8.5695245e-39
1.2938156 63.62925 77.288223 1.3277297e-38
4.4141445 65.655869 77.566238 1.2997437e-38
7.2557735 64.998619 74.743202 1.3088919e-38
10.10051 65.706047 73.595268 1.060427e-38
13.565985 70.041283 76.466003 9.217405e-39
16.608015 71.686409 76.330666 7.7426406e-39
19.956636 74.510529 77.426979 7.5586207e-39
23.025381 76.168289 77.288223 6.9146835e-39
26.271132 78.380981 77.705994 8.6656872e-39
-78.269112 19.429005 74.485023 9.0323089e-39
-77.970482 21.912228 77.149963 7.7455259e-39
-74.737823 23.65799 77.012192 6.5459262e-39
-72.814636 25.858467 78.270103 7.4671328e-39
-70.567184 28.028593 79.27726 7.2813136e-39
-68.007858 30.143036 80.012665 7.4664251e-39
-64.435272 31.820362 79.569794 9.9557071e-39
-61.013969 33.540764 79.27726 1.1983637e-38
-57.302887 35.05595 78.555244 1.3181115e-38
-53.178837 36.216919 77.149963 1.3182558e-38
-50.07988 38.005005 77.149963 1.2443912e-38
-45.753197 38.753201 75.13385 1.4108845e-38
-43.262821 40.994492 76.061424 1.4010535e-38
-39.442394 41.943626 74.613892 8.5742104e-39
-36.69928 43.977276 75.13385 1.0505644e-38
-32.823547 44.554325 73.220421 6.3575482e-39
-29.781311 46.094818 72.972633 5.9887629e-39
-27.079247 48.193821 73.595268 1.2810521e-38
-24.541878 50.765831 74.872963 1.6225391e-38
-21.571835 52.592445 75.003181 1.4010888e-38
-18.591444 54.42543 75.13385 1.3457361e-38
-15.492501 55.874763 74.743202 1.7327406e-38
-12.425614 57.309101 74.356598 1.3181834e-38
-9.455164 59.134399 74.485023 1.4107055e-38
-6.4521103 60.755791 74.356598 8.2932991e-39
-3.3276615 59.996521 71.402031 8.3858521e-39
-0.47209358 63.328976 73.344948 1.0694006e-38
2.5387878 66.731201 75.264969 1.3366972e-38
5.523468 68.0009 74.743202 1.2351e-38
8.3805046 68.545242 73.469894 1.4382552e-38
11.389853 70.608902 73.847305 1.2814488e-38
14.28278 71.950836 73.469894 1.2075835e-38
17.381969 74.286392 74.101082 8.2958144e-39
20.678228 77.197594 75.264969 7.8352118e-39
23.619026 78.667404 75.003181 5.8065338e-39
-80.412071 22.537691 74.872963 5.3477137e-39
-78.356834 24.571619 75.794075 6.7295915e-39
-76.52272 26.751411 77.012192 5.8076198e-39
-73.824783 28.690001 77.426979 6.2689623e-39
-73.076233 31.502544 80.012665 8.0203065e-39
-69.220169 33.050388 79.27726 7.9295739e-39
-65.914597 34.823765 79.131798 1.0509237e-38
-61.274448 35.803749 77.288223 1.115425e-38
-57.653328 37.261162 76.60183 1.3001023e-38
-54.770962 39.175709 76.874916 1.3736808e-38
-50.867004 40.310722 75.661102 1.3278365e-38
-47.494556 41.771175 75.13385 1.3738992e-38
-43.491585 42.548882 73.469894 1.2815931e-38
-40.471504 44.176418 73.344948 1.3735005e-38
-37.525387 45.876316 73.344948 1.2538254e-38
-34.001022 46.780621 72.118439 8.4776819e-39
-31.156271 48.533257 72.239243 7.6526002e-39
-28.589794 50.803207 73.096321 1.1339344e-38
-25.828773 52.85569 73.595268 1.1985799e-38
-23.109217 55.125816 74.356598 1.1523735e-38
-20.403898 57.644257 75.396553 8.3883856e-39
-17.135712 58.572506 74.356598 1.0417066e-38
-14.100336 60.088646 74.101082 1.3735027e-38
-10.991648 61.071537 73.220421 1.3271869e-38
-8.0917473 63.08989 73.595268 8.2904054e-39
-4.8151169 60.752342 69.002922 1.24479e-38
-2.1321068 65.058022 71.998047 7.2812968e-39
0.79025078 69.391136 74.872963 1.585299e-38
3.7650604 70.514351 74.228622 1.6316858e-38
6.632515 71.012482 72.972633 1.1799601e-38
9.6124725 73.074692 73.344948 1.2995642e-38
12.47373 74.269348 72.849373 1.0139024e-38
15.74571 77.663208 74.485023 7.5593368e-39
18.770039 79.526878 74.613892 4.9782123e-39
21.918812 81.822433 75.13385 5.0714967e-39
