# .PCD v0.7 - Point Cloud Data file format
VERSION 0.7
FIELDS x y z rgb
SIZE 4 4 4 4
TYPE F F F F
COUNT 1 1 1 1
WIDTH 1012
HEIGHT 1
VIEWPOINT 0 0 0 1 0 0 0
POINTS 1012
DATA ascii
296.55435 -223.49763 195.14401 2.3418047e-38
297.83289 -201.9532 182.7408 2.3509879e-38
300.99011 -190.57651 178.94949 2.3509883e-38
306.07034 -186.48488 181.96974 2.3509886e-38
317.71906 -201.25543 204.39255 2.3509886e-38
323.50372 -195.83115 207.34052 2.3509886e-38
332.26682 -196.97401 217.81226 2.3509886e-38
338.66095 -191.12224 221.16322 2.3509886e-38
348.32761 -191.05817 231.86467 2.3509886e-38
367.61578 -206.1268 262.96848 2.3509886e-38
367.95953 -186.46964 250.73737 2.3509886e-38
364.45752 -163.12234 231.86467 2.3509886e-38
387.58734 -176.59714 266.215 2.3509886e-38
396.47296 -169.03596 271.23792 2.3509886e-38
418.67542 -174.61595 299.49185 2.3509886e-38
431.30597 -149.52177 297.42639 2.3509886e-38
468.31537 -159.58911 345.01462 2.3509886e-38
481.88092 -149.31654 353.4986 2.3509886e-38
285.65204 -201.63718 179.69511 1.0697604e-38
291.73163 -203.75941 188.32677 1.2450062e-38
293.98584 -187.20367 179.69511 2.0197705e-38
297.55823 -177.76486 177.47665 2.3509886e-38
306.0567 -185.1109 192.53049 2.341805e-38
313.94696 -187.41898 203.42844 2.3509886e-38
318.34183 -178.40753 202.47337 2.3509886e-38
324.7926 -174.36914 207.34052 2.3509886e-38
332.78458 -172.68382 215.63414 2.3509886e-38
343.38812 -174.49332 229.39803 2.3509886e-38
352.52499 -171.6725 238.26976 2.3509886e-38
358.05014 -162.10333 238.26976 2.3509886e-38
369.51819 -160.51561 250.73737 2.3509886e-38
380.6496 -156.82826 261.37473 2.3509886e-38
406.64746 -167.67114 299.49185 2.3509886e-38
403.96924 -146.48773 281.87469 2.3509886e-38
437.46063 -157.8672 329.21243 2.3509886e-38
451.23935 -149.20145 339.58133 2.3509886e-38
475.06314 -145.90309 365.4816 2.3509886e-38
276.97418 -187.32359 170.46178 7.6522485e-39
281.2981 -182.6434 172.50731 8.1132266e-39
287.07803 -184.57492 181.20515 7.5600529e-39
290.76611 -175.0905 178.94949 8.0206667e-39
298.32446 -180.64639 192.53049 1.0418859e-38
306.30826 -184.44176 205.36584 1.2356776e-38
311.65765 -177.88821 207.34052 2.3050708e-38
317.43826 -172.04257 210.37477 2.3509886e-38
326.81293 -173.76534 223.45506 2.3509886e-38
334.17526 -169.17389 229.39803 2.3509886e-38
343.99445 -168.00375 240.93201 2.3509886e-38
350.14078 -159.21713 242.28555 2.3509886e-38
362.72522 -159.33313 258.24448 2.3509886e-38
373.13766 -154.51312 267.8685 2.3509886e-38
385.2287 -150.28955 280.04434 2.3509886e-38
396.47833 -143.70853 289.4418 2.3509886e-38
403.19006 -132.08423 289.4418 2.3509886e-38
445.28998 -147.11909 353.4986 2.3509886e-38
469.69406 -143.50894 381.65335 2.3509886e-38
271.21854 -193.30341 179.69511 7.0983502e-39
279.15073 -213.688 206.34846 6.9136016e-39
283.77408 -204.42273 205.36584 6.7295677e-39
288.90677 -198.06134 207.34052 6.6373693e-39
292.29144 -183.55692 200.5899 6.9136016e-39
298.2905 -180.53931 206.34846 7.6518842e-39
303.33063 -173.08028 207.34052 9.1270156e-39
310.46411 -171.34338 215.63414 7.8344846e-39
317.83875 -168.58371 223.45506 1.511903e-38
325.36328 -164.73068 230.62476 1.3278354e-38
336.74127 -167.08401 247.85533 2.2775202e-38
340.92111 -154.46664 243.65439 2.3509886e-38
353.59448 -155.20349 261.37473 2.3509886e-38
363.08215 -149.22849 269.54266 2.3509886e-38
381.67722 -152.72095 297.42639 2.3509886e-38
377.17249 -129.19315 272.95462 2.3509886e-38
406.2467 -138.37405 319.45798 2.3509886e-38
422.60434 -132.40997 336.92834 2.3509886e-38
461.86615 -139.60052 395.65897 2.3509886e-38
264.00177 -189.13651 179.69511 7.3742113e-39
268.09329 -181.1649 178.94949 7.3734924e-39
275.28555 -197.77701 203.42844 6.9128772e-39
279.86194 -188.71692 202.47337 6.7284887e-39
284.55701 -180.58536 202.47337 6.5451765e-39
290.19565 -176.59933 207.34052 6.91288e-39
297.75891 -178.57471 220.03484 6.8206843e-39
303.96252 -173.27408 224.6189 6.5451765e-39
312.76715 -174.23538 238.26976 6.6362945e-39
317.91708 -163.76144 236.96059 6.6377322e-39
325.91455 -159.5032 245.03879 7.0061546e-39
333.49429 -153.1427 250.73737 7.282387e-39
340.35925 -144.75601 253.68723 1.2539344e-38
353.55142 -144.78799 272.95462 1.5211944e-38
363.47174 -138.19925 281.87469 2.3234018e-38
380.2215 -137.67706 305.86401 2.3509883e-38
383.52609 -121.9341 297.42639 2.3509886e-38
410.3255 -125.57814 339.58133 2.3509886e-38
432.57599 -121.50773 368.60538 2.3509886e-38
441.12347 -106.70414 368.60538 2.3509886e-38
456.73889 -95.153656 381.65335 2.3509886e-38
253.27269 -240.23296 224.6189 6.2675078e-39
262.39841 -201.22968 203.42844 5.8987252e-39
267.11566 -193.05977 203.42844 5.8987252e-39
272.68906 -192.14044 211.40602 5.8990812e-39
276.42548 -175.89027 202.47337 6.7281202e-39
284.52435 -186.10733 224.6189 7.0969027e-39
291.01468 -182.79886 231.86467 7.280215e-39
299.30734 -184.39183 246.43901 7.5568018e-39
305.02194 -174.49457 246.43901 6.6362903e-39
312.52289 -169.4384 253.68723 6.5440947e-39
319.6344 -162.11084 258.24448 6.6362903e-39
329.93036 -160.38284 272.95462 6.2675106e-39
341.47015 -158.44611 289.4418 5.9909237e-39
344.99417 -142.05487 280.04434 5.6228628e-39
360.06448 -141.86218 303.71005 5.8076226e-39
365.48062 -127.86397 299.49185 6.5448191e-39
378.68076 -121.75467 314.79437 6.7266923e-39
400.23645 -120.55138 347.797 1.4476897e-38
403.35446 -103.25274 336.92834 2.3142544e-38
430.95987 -100.73975 378.30551 2.3509886e-38
436.461 -84.07164 371.78299 2.3509886e-38
455.72302 -72.911728 392.06207 2.3509886e-38
254.0563 -188.50966 195.14401 6.6359245e-39
258.98813 -189.23515 204.39255 6.3593377e-39
263.92572 -183.63748 207.34052 5.8983623e-39
271.5282 -201.46175 238.26976 5.8068855e-39
277.66473 -196.22913 243.65439 6.0827508e-39
284.48367 -192.9856 252.20367 5.9894789e-39
290.33194 -182.85681 252.20367 5.8061667e-39
295.91174 -171.7238 250.73737 5.5295826e-39
304.58203 -170.57962 264.58176 5.2544376e-39
315.11133 -171.52933 283.72913 5.4377499e-39
326.20264 -170.21284 301.58621 5.9912768e-39
332.04846 -155.92012 297.42639 6.6359245e-39
357.47571 -173.96997 359.39023 7.0958265e-39
349.26526 -136.74554 308.04877 6.3593405e-39
370.13864 -140.42224 347.797 6.2667917e-39
368.63614 -117.01744 321.84201 5.714334e-39
386.26855 -112.48643 347.797 5.4377499e-39
402.96881 -104.4128 368.60538 5.2529957e-39
410.14749 -88.849808 365.4816 6.9135792e-39
430.88599 -79.565979 392.06207 5.4384716e-39
452.75525 -48.964977 399.32248 2.0937416e-38
236.23456 -214.19719 209.35353 7.8326615e-39
246.07712 -190.89474 202.47337 7.0961782e-39
250.78322 -185.3741 205.36584 6.6362805e-39
256.03381 -192.7282 223.45506 6.267142e-39
262.22928 -200.36453 243.65439 5.8061639e-39
268.29269 -194.98557 249.28802 5.7139682e-39
275.55023 -196.32199 264.58176 6.8188739e-39
281.49234 -184.5638 262.96848 6.7266768e-39
292.22464 -195.45508 295.38922 5.8054408e-39
310.71909 -227.15613 365.4816 9.7630342e-39
320.99915 -218.0209 375.0159 6.4493893e-39
333.31778 -212.1853 392.06207 5.3459018e-39
347.93915 -174.35388 378.30551 6.2660658e-39
353.97537 -155.0797 368.60538 5.8076086e-39
362.52283 -140.27609 368.60538 5.437031e-39
364.23566 -118.38937 347.797 4.9767689e-39
370.35934 -102.764 342.2764 8.6645969e-39
386.99432 -95.052917 365.4816 5.5285008e-39
404.6431 -85.443451 388.52997 5.8061667e-39
234.14378 -183.96689 191.67479 6.7273971e-39
237.77335 -188.85966 205.36584 7.2805709e-39
242.39056 -184.11897 209.35353 6.8195927e-39
247.0748 -186.57983 222.30324 6.6362805e-39
252.40314 -191.46928 239.59349 5.8976364e-39
258.23343 -188.11752 247.85533 5.6217726e-39
264.83334 -189.02701 262.96848 6.9110681e-39
272.73328 -193.83051 285.60812 6.8188725e-39
281.66269 -196.68849 308.04877 6.8188725e-39
293.46265 -206.43495 345.01462 6.2656987e-39
352.75375 -113.05975 356.42007 2.3509886e-38
354.94733 -93.34539 336.92834 9.1237772e-39
374.42511 -88.070602 371.78299 9.7662516e-39
220.42383 -197.76768 202.47337 7.1876564e-39
226.95795 -175.61954 187.50795 6.8188767e-39
229.81401 -181.50458 202.47337 7.0958153e-39
234.06007 -178.39835 208.34216 6.5422856e-39
238.20764 -180.49454 221.16322 6.7284747e-39
242.82068 -184.88628 238.26976 6.45009e-39
248.29886 -180.2977 245.03879 5.9894761e-39
254.325 -185.18752 266.215 7.4645978e-39
260.97229 -182.3765 278.23761 7.6482702e-39
269.85852 -195.12012 317.10904 7.2802065e-39
279.37152 -196.85965 342.2764 5.8987154e-39
291.23566 -202.38857 378.30551 6.4508102e-39
348.32974 -92.00132 362.41031 5.0693149e-39
219.15924 -172.77388 189.15276 6.7273957e-39
221.94588 -175.16475 200.5899 6.542287e-39
225.57483 -174.40971 209.35353 5.9898321e-39
229.00244 -178.10616 224.6189 6.6352015e-39
232.96922 -182.38406 242.28555 6.4504543e-39
238.39186 -175.61339 246.43901 5.8065198e-39
243.63351 -179.01434 266.215 6.1753023e-39
249.78696 -185.49866 293.37979 5.9905551e-39
257.07108 -186.39621 314.79437 5.8983595e-39
265.38116 -185.97079 336.92834 5.7139682e-39
276.27295 -195.32957 381.65335 6.4508102e-39
327.88452 -77.719559 336.92834 8.2025006e-39
336.37219 -64.693573 339.58133 4.8849292e-39
210.70084 -172.16318 193.39384 6.0820277e-39
213.72122 -171.31012 201.52724 5.529577e-39
217.94501 -165.5372 204.39255 6.0820277e-39
219.98151 -172.89754 224.6189 5.2529929e-39
222.93468 -178.77449 245.03879 5.7146899e-39
228.24599 -171.86295 249.28802 5.8065198e-39
233.04669 -171.78079 264.58176 5.8054408e-39
238.24442 -175.12166 287.51218 5.0693205e-39
244.46896 -177.79877 312.51324 5.4373814e-39
251.83542 -176.77682 334.3165 5.7139682e-39
260.30685 -175.60159 359.39023 6.0816718e-39
317.51801 -73.344666 353.4986 1.5481617e-38
203.76331 -164.72394 189.98602 4.7927308e-39
204.9968 -169.00623 204.39255 5.3441067e-39
209.15565 -163.11682 207.34052 6.1742219e-39
211.36304 -165.96019 222.30324 5.4363024e-39
213.91379 -169.24588 239.59349 4.8860054e-39
218.77579 -163.25134 245.03879 5.528498e-39
222.25055 -166.66801 266.215 5.1600714e-39
226.54123 -169.58521 289.4418 5.1615161e-39
232.04817 -169.32501 310.26495 5.5288539e-39
238.31836 -170.34497 336.92834 5.8972805e-39
245.80342 -170.10284 365.4816 6.3582587e-39
303.32114 -65.147507 353.4986 1.0229374e-38
317.61469 -55.99979 388.52997 9.1216066e-39
197.29417 -156.86328 185.89149 4.9771249e-39
196.02069 -166.63588 207.34052 5.7128892e-39
199.61752 -162.2081 212.44743 5.435938e-39
200.91707 -165.93735 229.39803 5.7132438e-39
204.0361 -164.60448 240.93201 5.7139682e-39
208.70009 -158.4696 246.43901 5.8054408e-39
211.32031 -161.4917 267.8685 5.0675198e-39
215.15082 -161.78761 287.51218 6.0827508e-39
220.23012 -158.70509 303.71005 6.5422856e-39
225.36435 -158.80995 329.21243 7.0961796e-39
231.74413 -156.32855 353.4986 5.991274e-39
239.32901 -150.78316 375.0159 5.4391792e-39
290.4505 -58.880875 365.4816 7.464595e-39
300.20184 -45.355854 375.0159 9.6754951e-39
394.71326 111.0484 395.65897 9.1305791e-39
399.76605 123.53836 385.06097 9.7755856e-39
410.12479 140.2551 388.52997 1.051387e-38
410.46075 147.86612 368.60538 1.0698984e-38
414.78299 158.60297 359.39023 1.0330201e-38
413.57489 163.49902 339.58133 1.0329125e-38
424.1925 179.97116 345.01462 1.199118e-38
432.19296 193.82733 345.01462 1.5126571e-38
446.48077 214.54906 356.42007 1.6967963e-38
190.34286 -151.24884 184.30269 5.0678744e-39
191.35875 -152.30862 195.14401 5.5288539e-39
191.94339 -154.99121 209.35353 4.8842076e-39
194.08362 -154.06209 220.03484 6.1735031e-39
194.36002 -159.01758 240.93201 6.7273971e-39
198.80283 -152.75502 246.43901 5.7143242e-39
203.99161 -144.50931 249.28802 5.6217726e-39
204.21451 -153.07954 283.72913 7.0976244e-39
206.1813 -158.35344 317.10904 5.3459074e-39
214.57651 -141.45749 308.04877 4.7019743e-39
220.0058 -136.90932 326.71838 4.7030477e-39
227.23706 -125.69238 331.74484 4.9796318e-39
235.26971 -109.83451 324.26187 5.3491374e-39
242.67882 -98.289841 329.21243 5.2558642e-39
250.33315 -90.601219 350.6246 4.7945259e-39
258.46365 -76.519753 350.6246 6.1738702e-39
266.32867 -61.439278 345.01462 5.8987281e-39
274.3291 -47.583118 345.01462 6.083841e-39
283.12451 -34.556309 353.4986 7.5578865e-39
291.32169 -20.359425 353.4986 5.437387e-39
301.19745 -6.371439 365.4816 1.2629009e-38
306.7851 7.9047585 347.797 9.5847554e-39
314.85004 21.872663 347.797 1.5577111e-38
325.34549 37.035252 359.39023 1.2262757e-38
335.82489 52.78846 368.60538 9.4965394e-39
346.85583 69.370789 378.30551 1.1248968e-38
351.19006 81.010834 362.41031 1.37368e-38
355.17477 91.712166 347.797 1.0786906e-38
360.56476 103.18369 339.58133 9.9549448e-39
367.51392 115.90898 336.92834 8.7618022e-39
371.52905 125.51796 326.71838 1.0236918e-38
368.34644 127.08604 299.49185 9.1309351e-39
374.42719 138.15456 297.42639 9.4993617e-39
371.28656 138.62694 274.69318 9.7770303e-39
383.61365 156.64301 287.51218 9.7777436e-39
377.52789 152.89981 261.37473 1.4666975e-38
395.97452 178.54628 285.60812 1.5951957e-38
182.94107 -146.97511 184.30269 5.5288539e-39
183.52156 -147.78351 195.14401 5.7125249e-39
185.4166 -145.88744 203.42844 5.0685988e-39
185.57547 -148.20364 218.91791 6.1742233e-39
185.0468 -152.57832 239.59349 7.0961782e-39
189.59592 -145.37895 243.65439 6.173873e-39
193.97995 -138.72865 249.28802 5.0686016e-39
200.33476 -127.24592 246.43901 4.7026932e-39
204.75668 -120.80009 253.68723 4.794886e-39
209.69092 -113.27708 259.80017 4.7948888e-39
212.55753 -112.31564 283.72913 5.8108344e-39
218.93243 -101.58911 285.60812 5.7171968e-39
226.18613 -87.793137 278.23761 5.8093953e-39
232.17818 -78.648453 285.60812 6.2660658e-39
238.33765 -69.957901 297.42639 6.5451709e-39
245.13388 -59.238564 303.71005 7.3745798e-39
252.20761 -47.713257 308.04877 7.4667754e-39
259.15466 -34.60025 301.58621 6.7292104e-39
266.37711 -22.807207 305.86401 7.9270333e-39
273.14142 -10.376198 301.58621 1.1246446e-38
279.92554 1.7237749 299.49185 1.1981482e-38
286.87036 13.751692 299.49185 1.0047533e-38
294.12158 25.959887 301.58621 1.2814139e-38
300.40991 37.546783 297.42639 1.0417771e-38
308.10834 50.183945 301.58621 1.2999601e-38
314.64963 61.863358 299.49185 7.3756644e-39
322.09509 74.40799 301.58621 1.4199234e-38
326.9364 84.165733 293.37979 1.2074388e-38
334.31305 96.605362 295.38922 1.5491426e-38
339.93082 107.00273 291.39749 1.3920839e-38
341.14529 111.90078 274.69318 7.5607549e-39
344.50534 119.13853 266.215 9.5912084e-39
345.9407 123.72038 253.68723 8.6724863e-39
352.42587 134.70108 255.18832 8.7628784e-39
355.23004 140.7845 247.85533 1.0421672e-38
356.68552 144.90897 238.26976 8.3962539e-39
357.46103 147.93939 228.18428 1.3919699e-38
177.09703 -139.71599 180.44698 4.8827642e-39
176.67966 -141.33975 192.53049 5.1611504e-39
181.14418 -133.60751 192.53049 4.9767591e-39
184.13858 -128.74915 196.92615 5.0703967e-39
186.97842 -124.24432 202.47337 5.5328084e-39
183.56393 -132.25681 230.62476 5.6221384e-39
185.46051 -129.94351 243.65439 5.1622364e-39
192.41196 -117.50266 238.26976 3.8725696e-39
197.35541 -109.13945 240.93201 4.8885152e-39
202.14017 -101.15876 245.03879 5.7193464e-39
207.8223 -91.317741 245.03879 5.0732694e-39
210.59373 -87.974854 264.58176 5.6235677e-39
217.52594 -75.496307 258.24448 6.91288e-39
224.43286 -62.866261 249.28802 7.2827415e-39
228.87 -56.44347 266.215 7.0979929e-39
235.04315 -45.751991 266.215 7.3738581e-39
241.10652 -35.498768 269.54266 6.6359274e-39
247.30637 -25.145113 274.69318 9.0341011e-39
253.62988 -13.935616 271.23792 8.5724013e-39
259.38812 -2.8794219 256.70731 1.4013398e-38
265.34082 7.4302206 256.70731 1.4381097e-38
270.6781 17.22715 249.28802 9.95497e-39
276.61258 27.397194 250.73737 9.5847568e-39
282.42685 37.467075 250.73737 8.0203065e-39
288.46475 47.814953 252.20367 1.2537905e-38
294.31302 57.943729 252.20367 1.4566207e-38
301.36273 69.702972 258.24448 1.3554233e-38
305.6839 77.746613 250.73737 1.4659495e-38
313.33942 90.445717 258.24448 1.5767281e-38
318.10434 99.037979 253.68723 1.7332429e-38
320.267 103.7345 240.93201 1.4749895e-38
325.85388 113.41059 240.93201 1.0138282e-38
330.09836 121.05778 236.96059 9.5887084e-39
333.75244 127.76632 231.86467 1.0420264e-38
335.89642 132.10651 223.45506 9.4961471e-39
336.59143 134.13092 212.44743 8.6685304e-39
339.74933 139.90627 208.34216 1.0141857e-38
169.17371 -136.67538 181.96974 5.0678758e-39
170.3694 -134.47388 189.15276 4.0551658e-39
175.4099 -125.77402 187.50795 4.7026932e-39
178.19702 -120.87115 191.67479 4.6104976e-39
182.64171 -113.17328 191.67479 3.782176e-39
185.94768 -107.38448 195.14401 4.7963195e-39
194.0191 -93.616798 183.51842 5.9026643e-39
193.98407 -93.400589 198.74115 5.2580138e-39
195.31665 -90.862297 211.40602 4.8874362e-39
198.187 -85.734131 220.03484 4.6115724e-39
202.80775 -77.690041 222.30324 5.5295826e-39
208.17825 -68.409477 221.16322 6.1763911e-39
212.7334 -60.457443 224.6189 6.3597062e-39
218.4352 -50.645176 221.16322 7.0972726e-39
223.42741 -41.978294 222.30324 8.4809302e-39
228.24593 -33.569473 225.79491 8.941181e-39
233.03777 -25.159943 231.86467 8.1114246e-39
238.02821 -16.376274 239.59349 9.8624227e-39
243.88959 -6.4323254 228.18428 1.4014843e-38
249.19366 2.6891174 224.6189 1.3643537e-38
254.2262 11.241653 215.63414 1.3829361e-38
259.18054 19.802738 214.56134 9.2195742e-39
264.97549 30.065105 226.98331 1.180035e-38
270.02811 38.772869 224.6189 1.2353149e-38
274.72168 46.81842 220.03484 9.4036053e-39
280.13147 56.229019 222.30324 1.3461312e-38
286.02927 66.528679 226.98331 1.2722659e-38
290.02863 73.328926 220.03484 1.797781e-38
295.13095 82.165764 220.03484 1.3274401e-38
299.97827 90.540665 218.91791 1.3461652e-38
303.42746 96.396706 212.44743 1.7791261e-38
309.82739 107.57854 217.81226 1.2912081e-38
313.28021 113.46095 212.44743 1.5577476e-38
316.88858 119.6357 208.34216 8.7582317e-39
320.69516 126.17432 205.36584 9.4968631e-39
324.04691 131.9095 201.52724 9.3131795e-39
325.8833 134.95789 194.26498 1.12475e-38
164.04178 -129.18526 177.47665 4.239557e-39
165.37108 -126.21274 183.51842 3.5974246e-39
173.22055 -113.52835 175.3123 4.9796346e-39
170.49916 -116.42646 191.67479 3.9662029e-39
176.89334 -105.90449 186.69623 4.8874362e-39
182.67973 -96.321671 182.7408 4.703768e-39
186.6488 -89.361252 183.51842 5.3502122e-39
188.27788 -85.635002 191.67479 4.8899571e-39
192.72256 -77.937134 191.67479 6.4526039e-39
196.45329 -71.188446 194.26498 7.0050756e-39
200.73613 -63.67337 195.14401 6.6370148e-39
203.36197 -58.206581 203.42844 6.0838438e-39
207.47746 -50.754906 206.34846 7.6511695e-39
212.62012 -42.065193 204.39255 8.2969046e-39
216.88893 -34.344883 207.34052 9.7723878e-39
221.96643 -25.770075 205.36584 1.0785098e-38
226.61725 -17.606199 206.34846 9.1252122e-39
231.31277 -9.3638268 207.34052 1.0787277e-38
236.12073 -1.036808 207.34052 1.4472567e-38
241.05765 7.1865587 204.39255 1.4750261e-38
245.8367 15.250628 202.47337 1.5024288e-38
250.52441 23.057426 199.66124 1.4471851e-38
255.06058 30.511017 196.03104 1.7328474e-38
259.56281 38.210152 195.14401 2.1475482e-38
264.2818 46.681026 197.82948 1.0045734e-38
269.22189 55.647121 201.52724 9.5876449e-39
273.89505 63.740669 201.52724 1.1337197e-38
279.11234 73.202492 205.36584 1.5214122e-38
282.93353 79.187706 199.66124 1.4846054e-38
285.5864 82.616508 189.15276 1.1987964e-38
290.32635 91.011429 190.82668 1.2904151e-38
293.03748 94.896194 183.51842 1.4381813e-38
298.11194 104.03732 186.69623 1.4937535e-38
301.99103 110.57787 185.09369 1.3093224e-38
306.77042 119.03316 186.69623 9.2159588e-39
309.05447 122.29575 180.44698 9.9567609e-39
306.60703 115.95769 161.5237 1.0141156e-38
171.38248 -104.21797 156.82483 4.6115724e-39
173.3466 -100.1038 160.32278 5.5321007e-39
173.95462 -97.658531 167.15825 4.242794e-39
180.00128 -88.210083 162.13094 4.6104863e-39
183.51093 -82.007019 162.74275 5.44061e-39
189.34471 -72.992126 157.39719 5.717194e-39
185.98567 -74.868118 176.7493 5.8076086e-39
189.33841 -68.613281 178.94949 6.3604279e-39
192.77568 -62.200768 181.20515 6.1753149e-39
197.41943 -54.465679 179.69511 7.8355636e-39
201.58632 -47.248924 179.69511 9.4032522e-39
205.56808 -40.199677 180.44698 7.282387e-39
209.24078 -33.37162 182.7408 7.5589711e-39
214.38379 -25.387117 178.21004 1.0138654e-38
217.71581 -18.693485 182.7408 9.4940087e-39
220.58215 -11.909522 191.67479 1.1152437e-38
226.08952 -4.0324354 183.51842 1.4474379e-38
230.67403 3.2819982 180.44698 1.0232628e-38
235.04605 10.398418 178.21004 1.8529549e-38
239.56653 16.926044 171.82004 9.5833022e-39
243.25522 24.918571 179.69511 1.3460249e-38
247.41132 32.269779 180.44698 1.7239174e-38
251.57587 39.026848 178.21004 1.6314689e-38
255.54784 44.885612 173.20012 1.0785098e-38
260.04837 54.4664 181.96974 1.355169e-38
263.97321 60.498169 178.21004 1.3554202e-38
268.10568 67.655273 178.21004 1.5119018e-38
271.35565 71.843636 171.1382 1.5765115e-38
275.22403 78.405602 170.46178 1.3186888e-38
279.2926 85.589821 171.1382 1.6228276e-38
283.39359 92.831299 171.82004 1.087694e-38
286.50522 97.403412 167.80867 1.5487826e-38
291.36212 106.63226 171.82004 1.1618131e-38
295.34641 113.53275 171.82004 8.9433657e-39
295.52206 111.13506 158.55452 1.7238813e-38
299.19873 117.50278 158.55452 1.2815555e-38
165.44482 -102.05524 149.74593 5.0707456e-39
169.75314 -95.051155 148.20216 4.3342624e-39
171.01843 -91.617912 152.39162 4.2417122e-39
171.78854 -88.629486 157.97372 4.6104948e-39
175.72382 -81.984772 157.39719 4.3349869e-39
178.32733 -76.784477 159.72899 4.6090626e-39
183.02347 -69.342293 157.39719 6.728839e-39
186.20766 -63.484444 158.55452 6.4515333e-39
188.75858 -58.186321 161.5237 6.8214088e-39
191.18234 -52.887844 165.23689 9.03482e-39
194.80247 -46.429649 165.87242 7.9277564e-39
198.84558 -39.615665 165.23689 7.7440812e-39
202.12694 -33.363056 167.15825 8.7575199e-39
205.4855 -26.963329 169.12482 9.4028977e-39
209.24747 -20.250504 169.79066 9.402162e-39
213.47231 -13.326597 168.46417 8.5731286e-39
216.72894 -6.6915884 171.82004 1.0327012e-38
221.05913 0.20642185 169.79066 8.5734747e-39
225.19168 6.9705114 168.46417 1.6595613e-38
229.65446 13.370612 163.98033 1.4842077e-38
234.06293 19.225241 157.97372 8.5713279e-39
237.40312 26.242521 162.13094 1.6776387e-38
240.99344 33.381344 165.23689 1.7054771e-38
244.92233 39.265228 162.13094 1.6315415e-38
248.69662 45.26606 160.32278 8.4784092e-39
252.46002 52.684055 163.35919 1.3183622e-38
256.29581 59.696987 164.60622 1.3549546e-38
260.11279 66.307747 164.60622 8.7571639e-39
263.72031 71.821991 162.13094 8.8507973e-39
266.90787 75.769714 156.82483 1.7243865e-38
270.771 82.973122 158.55452 1.6040295e-38
274.35812 89.013588 157.97372 1.3920146e-38
277.22357 92.643166 153.47626 1.2079081e-38
280.13892 96.741287 150.2677 1.6412312e-38
284.46402 105.3456 154.02438 1.733028e-38
286.72406 107.68548 148.7132 1.5760795e-38
290.45151 114.44725 149.74593 9.8634905e-39
167.19394 -90.132866 136.91057 3.6896161e-39
167.75784 -87.409286 141.39943 3.6878252e-39
170.5155 -82.270012 142.33276 4.2417178e-39
172.01436 -78.364166 145.69875 4.4250273e-39
173.3205 -74.527 149.74593 6.269314e-39
176.79291 -68.513031 149.74593 5.9919999e-39
179.53127 -63.156967 151.3222 6.7292132e-39
183.73773 -56.485123 149.74593 7.8355579e-39
187.21013 -50.471169 149.74593 7.9277564e-39
190.05814 -44.925171 151.3222 6.913959e-39
194.34818 -38.310226 149.22778 8.4809302e-39
196.88971 -32.88604 151.85503 9.3114097e-39
198.97366 -27.563824 156.25662 1.032521e-38
202.42467 -21.365803 156.82483 1.0418143e-38
205.41269 -15.289947 159.13959 1.2078369e-38
209.69778 -8.7692928 156.82483 8.5734915e-39
213.86002 -2.4356117 154.57645 1.5026482e-38
218.01761 3.7059307 151.85503 1.576259e-38
221.73795 9.7360287 150.79311 1.4660193e-38
225.49171 15.628111 149.22778 7.5596927e-39
229.92462 20.622259 142.33276 1.308927e-38
232.88623 26.870586 145.20818 9.4950933e-39
235.96999 33.376579 148.20216 9.6794902e-39
239.14549 40.297901 151.85503 9.6787685e-39
242.91623 44.818451 146.6899 9.8598863e-39
246.24106 51.766125 149.74593 9.3110538e-39
249.71246 57.981407 150.2677 1.1524101e-38
252.99847 60.041447 140.93735 7.4703557e-39
256.63525 69.566452 149.22778 8.2054139e-39
259.99191 74.783295 147.69461 1.0050065e-38
263.19089 79.356033 145.20818 1.3091442e-38
266.33804 84.055695 143.2785 1.327798e-38
269.99258 91.326973 145.69875 1.5855524e-38
272.83121 94.933342 142.33276 1.3183635e-38
275.54163 98.376846 139.1188 1.5765856e-38
278.22141 101.99001 136.47731 1.5668603e-38
282.09714 109.9057 139.56902 1.4936091e-38
163.88257 -84.804352 133.51959 3.4130334e-39
165.93768 -80.438179 135.19382 4.6094186e-39
167.25697 -76.691544 138.22702 4.8867355e-39
169.69006 -71.830872 139.56902 5.5306672e-39
172.17087 -66.874908 140.93735 5.7150585e-39
174.94849 -61.617439 141.86456 5.6235817e-39
179.39932 -55.015156 139.56902 6.1764023e-39
181.30179 -50.388329 142.33276 7.4660538e-39
185.03113 -44.379158 141.39943 6.0842067e-39
188.10709 -38.827702 141.86456 7.3749455e-39
191.58887 -33.021645 141.39943 8.2965417e-39
194.50381 -27.523375 142.33276 7.0972726e-39
197.6315 -21.879345 142.80406 8.2054447e-39
200.61588 -16.251806 143.75609 8.6642424e-39
203.9494 -10.478409 143.75609 7.8337629e-39
207.70584 -4.6584225 142.33276 1.0968781e-38
211.13461 1.0543346 141.86456 1.3645341e-38
214.77191 6.685792 140.47827 1.5395249e-38
218.33881 12.20825 139.1188 1.7234131e-38
222.10471 17.457523 136.47731 1.2265303e-38
225.88005 22.372215 133.1075 6.6344826e-39
228.43416 28.419674 136.47731 1.8527754e-38
231.30304 34.445782 138.67148 1.557892e-38
234.71524 39.506851 136.91057 1.6131737e-38
237.89001 45.005325 136.91057 1.2810172e-38
241.20439 49.714684 134.77133 9.7702383e-39
244.22121 56.180626 137.34659 1.5672215e-38
247.45473 60.53981 134.77133 1.5671484e-38
250.59476 67.643448 138.22702 1.0786554e-38
253.83694 73.905426 139.56902 1.0508158e-38
256.8732 77.260376 135.61896 1.3738239e-38
260.01801 82.70697 135.61896 1.4197436e-38
262.72275 85.206192 131.08458 1.5949155e-38
265.66718 89.924042 130.29253 9.5858498e-39
268.30145 93.186035 127.59416 1.4475466e-38
271.19745 98.020348 127.21778 1.1431557e-38
274.43579 104.36095 128.7368 1.9360017e-38
163.75258 -74.500694 130.29253 5.1622392e-39
166.52168 -69.477905 130.68736 5.7150585e-39
168.8141 -64.818611 131.88632 6.3604279e-39
174.63794 -57.414948 127.21778 6.4526235e-39
174.70036 -54.39156 132.29088 6.5455408e-39
177.98891 -48.92852 131.88632 7.7440798e-39
180.83566 -43.765671 132.29088 6.6384511e-39
183.2894 -38.809872 133.51959 7.006163e-39
186.97095 -33.139778 132.29088 7.1909102e-39
189.48169 -28.085289 133.51959 7.4667754e-39
192.9312 -22.583162 132.69794 1.0231924e-38
195.50525 -17.414623 133.93425 8.9422853e-39
197.80045 -12.225517 136.04678 7.7437323e-39
200.48662 -6.8263321 137.34659 1.4381099e-38
206.18329 -1.2393017 129.90009 1.3458418e-38
209.31804 3.9656792 129.50999 1.1985831e-38
212.3212 9.1669407 129.50999 1.6780354e-38
215.32436 14.368202 129.50999 1.437893e-38
219.16101 19.054478 126.10184 1.1244264e-38
222.8009 23.500431 122.86845 7.1865872e-39
224.71353 29.52861 127.59416 1.4194188e-38
227.60602 34.75576 127.97279 1.2723036e-38
230.63101 39.777252 127.59416 1.5208329e-38
233.73412 44.506542 126.47163 9.766976e-39
237.04668 48.17308 122.86845 1.234665e-38
239.47607 55.313858 127.97279 1.5580361e-38
242.745 58.042137 122.86845 1.3458757e-38
245.4516 65.014145 126.84361 1.1889648e-38
248.44772 67.718269 122.51939 1.465804e-38
251.33035 74.981964 126.47163 1.6408324e-38
254.16534 78.225998 123.57257 1.5211588e-38
256.97092 82.479797 122.51939 1.1431918e-38
259.75653 86.906525 121.82719 1.447148e-38
262.54611 91.540649 121.48402 1.3736811e-38
265.02457 94.294632 118.80669 1.7610823e-38
268.23157 101.58466 121.82719 2.0556012e-38
163.73242 -67.406479 122.86845 6.0849228e-39
167.28851 -61.942528 121.82719 6.268598e-39
170.56233 -56.729305 121.14278 5.1640455e-39
172.93854 -52.157104 121.82719 5.8101338e-39
175.34177 -47.53294 122.51939 7.8344817e-39
176.2984 -43.730537 125.73419 6.452992e-39
179.214 -38.680923 125.73419 7.4667782e-39
183.86493 -32.771408 122.51939 6.8224906e-39
186.8853 -27.771996 122.17232 8.7578954e-39
189.0274 -23.127491 123.57257 7.7440798e-39
191.72592 -18.216885 123.92767 9.4047039e-39
194.43997 -13.277967 124.28481 9.1255765e-39
197.7735 -8.2155285 123.21951 1.2075855e-38
200.06006 -3.3046684 124.64401 1.2261317e-38
202.2605 1.7261162 126.47163 1.3551701e-38
206.71638 6.5740089 122.17232 1.8624259e-38
210.00262 11.351945 120.80344 1.4753844e-38
213.31766 15.979737 119.13488 1.354774e-38
216.54236 20.48143 117.5118 8.6631382e-39
219.35081 25.132349 117.19247 7.5600585e-39
221.91571 30.00198 117.83286 1.5490709e-38
224.5088 34.925125 118.48029 1.9175634e-38
227.50342 39.252075 117.19247 1.8896901e-38
230.11287 44.198868 117.83286 1.6040989e-38
233.25697 47.756809 115.00488 9.9538882e-39
235.73357 53.083313 116.559 1.5580005e-38
238.34189 58.236633 117.5118 1.4472923e-38
241.01788 63.300995 118.15569 1.511579e-38
243.67105 68.991348 119.79675 1.5211214e-38
246.58191 71.039848 115.31238 1.5763295e-38
249.23749 77.536774 118.15569 1.6225363e-38
251.95065 81.17012 116.559 1.521338e-38
254.6535 85.851257 116.559 1.6408681e-38
257.23895 89.087723 114.69901 1.2905994e-38
259.79446 92.707909 113.49165 1.2170576e-38
262.29675 96.25267 112.30945 2.2399599e-38
164.91754 -62.865055 111.15162 5.1633224e-39
166.41792 -59.163506 112.60268 4.8863796e-39
168.60397 -54.928085 113.19377 6.0845584e-39
170.60362 -50.78196 114.09214 5.992367e-39
173.24927 -46.199905 114.09214 6.2685896e-39
174.4967 -42.403076 116.24482 7.8370181e-39
177.58266 -37.532227 115.62152 7.7433679e-39
180.26376 -32.888744 115.62152 8.5738531e-39
182.58339 -28.397524 116.24482 9.0344585e-39
185.10403 -23.79314 116.559 7.9281081e-39
187.80688 -19.112003 116.559 7.6511807e-39
189.85956 -14.588583 117.83286 8.296906e-39
192.59195 -9.856287 117.83286 1.0878744e-38
195.47331 -5.110033 117.5118 1.1246446e-38
198.75676 -0.3864193 116.24482 1.5395616e-38
201.32111 4.2936707 116.559 1.5491413e-38
204.99699 8.7848616 114.09214 1.4840634e-38
208.30447 13.158068 112.30945 1.5488179e-38
211.804 17.263914 109.73747 1.1243917e-38
214.97256 21.291845 107.81707 7.0029148e-39
216.63866 26.278866 110.58161 8.0163507e-39
219.51556 30.408066 109.45895 1.4105242e-38
221.62161 35.342262 111.15162 1.2904537e-38
223.93031 40.220879 112.30945 1.7513969e-38
226.59557 44.615162 112.01774 1.4193455e-38
229.71986 47.870529 109.18185 7.738675e-39
232.38542 51.861504 108.35886 1.6960406e-38
234.97363 55.932243 107.81707 1.5856946e-38
237.3152 61.025108 109.18185 1.6963294e-38
239.9989 64.431267 107.5482 1.5483122e-38
242.35942 69.97197 109.45895 1.5120797e-38
245.01158 72.707138 107.01446 1.6591263e-38
247.5359 75.690239 105.18739 1.7792354e-38
249.97443 81.912544 107.81707 1.3369848e-38
252.42012 84.344833 105.44456 1.2168769e-38
254.86523 88.579597 105.44456 1.2905967e-38
257.38254 93.731056 106.48599 1.7701575e-38
165.46469 -56.913834 104.93146 4.7938238e-39
167.29422 -53.087177 105.70301 6.3611467e-39
170.33113 -48.485519 104.93146 6.9146891e-39
173.50879 -43.844643 103.92007 6.4526263e-39
174.83179 -40.253075 105.44456 7.0987146e-39
175.26698 -37.01379 108.35886 6.6373805e-39
178.49829 -32.336983 107.28067 7.9281333e-39
180.6409 -28.168619 107.81707 7.7422917e-39
182.6358 -24.018709 108.63181 8.0203191e-39
185.96136 -19.411461 107.28067 9.0351857e-39
186.39209 -15.607683 110.86588 1.02305e-38
188.16817 -11.300436 112.30945 1.0507436e-38
191.38307 -6.7199688 111.15162 7.190906e-39
194.81392 -2.2216454 109.45895 1.0877292e-38
196.26099 2.219408 111.72753 1.290705e-38
200.14342 6.5371494 108.90613 1.6778565e-38
204.28499 10.538369 105.18739 1.7423923e-38
207.24554 14.584943 103.92007 1.2998176e-38
208.86229 19.127203 105.96272 1.207369e-38
213.38838 22.132072 100.29495 1.2073686e-38
214.56024 27.040411 103.67026 1.4287827e-38
216.64348 31.50687 104.67677 1.6777463e-38
219.07079 35.710804 104.67677 1.6223582e-38
220.78911 40.907639 107.28067 1.7423206e-38
223.86197 44.226013 104.93146 1.6041349e-38
226.69217 47.628975 103.17423 1.0691809e-38
229.33186 51.160595 101.95467 1.3827554e-38
231.43269 56.05024 103.42165 1.5025036e-38
233.98453 59.631763 102.43902 1.5949153e-38
236.32748 63.897598 102.68292 1.5675817e-38
238.89366 66.906342 100.9996 1.4657684e-38
241.047 72.490501 103.17423 1.6316502e-38
243.43947 76.634094 103.17423 1.7700493e-38
245.9198 79.075104 100.9996 1.6680943e-38
248.30936 80.858978 98.238785 1.6595599e-38
250.59552 85.979469 99.600067 1.3090371e-38
252.90512 89.979515 99.600067 1.14265e-38
162.5275 -53.696728 103.42165 4.7009065e-39
165.93372 -48.956192 102.19627 5.254802e-39
169.63654 -44.120033 100.52874 6.5448191e-39
171.78535 -40.176338 100.76362 5.8998183e-39
173.94423 -36.21418 100.9996 9.3103195e-39
174.33711 -33.008255 103.67026 9.8642317e-39
177.09161 -28.70673 103.17423 8.4802071e-39
179.48407 -24.563145 103.17423 8.7600422e-39
181.54904 -20.517725 103.67026 8.5749349e-39
183.79385 -16.393625 103.92007 1.2535371e-38
186.35698 -12.19071 103.67026 9.4950933e-39
188.01596 -8.1248531 104.93146 9.2188581e-39
190.73756 -3.8917561 104.42331 9.4018075e-39
193.56891 0.29981995 103.67026 1.1152457e-38
196.86694 4.3894672 101.95467 1.3369108e-38
199.58867 8.4243317 101.23669 1.4658051e-38
202.49379 12.345209 100.06225 1.4470057e-38
204.9187 16.325937 99.83062 1.2075859e-38
207.3324 20.288279 99.600067 1.2165881e-38
211.25275 23.318945 95.624893 7.5553739e-39
212.29987 28.029438 98.688393 1.3828277e-38
214.34354 32.21402 99.370575 1.6407956e-38
216.49339 36.372463 99.83062 1.6040634e-38
218.88037 40.288509 99.600067 1.5764752e-38
220.98895 44.597546 100.29495 1.7605058e-38
224.1561 47.092262 97.132492 1.1426111e-38
226.77463 50.201736 95.624893 7.1905431e-39
228.85136 54.404026 96.265244 1.5947333e-38
230.65175 59.600517 98.463074 1.5300533e-38
233.12759 62.83757 97.351753 1.6503403e-38
235.8017 64.844437 94.576378 1.419744e-38
237.91528 69.097313 95.202713 1.6592348e-38
240.01268 73.734604 96.265244 1.4931742e-38
242.49619 75.086662 93.1465 1.4013387e-38
244.64456 78.998146 93.348114 1.613243e-38
246.82294 82.390442 92.945747 1.3737182e-38
248.96257 87.442413 94.369423 1.3735728e-38
164.52338 -47.855659 96.480598 5.4388401e-39
170.15451 -42.187683 92.546844 6.7310195e-39
171.62782 -38.803978 93.348114 6.177124e-39
173.12688 -35.361183 94.163383 7.3756644e-39
173.30081 -32.429146 96.696922 8.75788e-39
175.70966 -28.48184 96.480598 1.0049326e-38
178.42728 -24.443026 95.837395 6.731374e-39
179.55377 -20.919508 97.351753 8.8515175e-39
180.07495 -17.442871 99.83062 9.1248716e-39
182.38989 -13.433567 99.83062 1.0047177e-38
184.70483 -9.4242592 99.83062 9.4032536e-39
187.16522 -5.4024506 99.600067 8.6649683e-39
189.3347 -1.4056492 99.83062 1.105989e-38
192.31726 2.573864 98.688393 1.3458771e-38
194.9834 6.4927216 98.015518 1.3829381e-38
198.08221 10.265813 96.480598 1.6133535e-38
200.65068 14.046309 95.837395 1.3917951e-38
203.18512 17.77673 95.202713 9.952812e-39
206.45024 21.0881 92.945747 7.5535592e-39
209.22073 24.452013 91.564392 6.0809585e-39
210.67606 28.615376 93.1465 1.059926e-38
213.07526 32.147934 92.546844 1.3178954e-38
214.99594 36.097103 93.1465 1.336695e-38
217.0134 40.010796 93.550606 1.4842088e-38
219.44781 43.391396 92.745865 1.4563342e-38
221.53726 47.217712 92.945747 1.0964795e-38
224.40952 49.561924 90.412636 1.0595298e-38
226.30739 53.64283 91.177223 1.5854046e-38
228.28394 57.67038 91.759209 1.4749532e-38
230.577 60.837757 90.984871 1.345877e-38
233.00943 63.2901 89.289497 1.8528812e-38
234.98668 67.294037 89.847557 1.5577824e-38
237.15044 70.462021 89.289497 1.4473293e-38
239.10818 74.822548 90.223488 1.5028992e-38
241.12608 79.108009 90.984871 1.4104512e-38
243.33435 81.557625 89.660767 1.5948801e-38
245.38467 85.692963 90.223488 1.3647488e-38
160.24704 -45.823433 96.914223 6.819611e-39
169.04362 -38.792946 89.660767 6.2685868e-39
170.46129 -35.487186 90.412636 6.268235e-39
173.04185 -31.657019 89.847557 5.3466459e-39
173.69458 -28.584602 91.564392 8.5752866e-39
175.02188 -25.17452 92.546844 8.0203191e-39
176.37799 -21.690472 93.550606 9.4039879e-39
178.23596 -18.01152 93.958229 8.6660403e-39
181.16457 -14.084627 92.945747 8.0199688e-39
182.44632 -10.48744 94.163383 9.031569e-39
184.19882 -6.7499485 94.784241 6.0849144e-39
186.95102 -2.9176655 93.958229 7.6507981e-39
189.52505 0.85024261 93.348114 1.3827575e-38
190.92242 4.6597195 94.576378 1.3185456e-38
194.80995 8.206068 91.759209 1.4566957e-38
196.93773 11.891217 91.759209 1.345735e-38
201.14447 14.940596 88.013931 1.8346615e-38
201.90952 18.978851 90.412636 1.493102e-38
205.3175 21.965239 87.834679 9.0294236e-39
207.61325 25.337959 87.30127 7.8355579e-39
208.71843 29.500977 89.289497 1.603737e-38
210.70758 33.155582 89.474747 1.6040637e-38
211.91318 37.607243 91.564392 1.437893e-38
214.63708 40.595055 90.035133 1.5760443e-38
216.93198 43.935791 89.474747 1.4011592e-38
218.94234 47.628006 89.660767 1.3456959e-38
222.56165 48.506088 84.895332 1.1247198e-38
224.01881 52.958054 86.60006 1.1245357e-38
225.88167 56.778046 87.124908 1.4935003e-38
227.67648 60.892143 88.013931 1.5763683e-38
230.04324 63.391907 86.60006 1.2631168e-38
232.12317 66.602386 86.253654 1.2722656e-38
234.09146 70.206833 86.426506 1.0971668e-38
236.36874 72.230316 84.728539 1.3459141e-38
238.31053 75.78199 84.895332 1.2536837e-38
240.02383 81.271255 87.124908 1.2076938e-38
242.13943 83.755074 86.08149 1.2818455e-38
167.66794 -35.747677 87.30127 6.3629558e-39
170.33739 -31.982597 86.60006 9.1288611e-39
172.34552 -28.504646 86.60006 7.4646118e-39
174.04865 -25.127609 86.949249 8.298348e-39
174.07491 -22.21796 89.289497 8.3905408e-39
174.90154 -18.945797 90.79332 7.4685845e-39
177.91743 -15.108597 89.660767 7.6511695e-39
179.26122 -11.628601 90.602577 8.8522616e-39
181.21767 -8.0067215 90.79332 8.940465e-39
183.87985 -4.3239555 90.035133 1.1337916e-38
186.49792 -0.70218277 89.289497 9.493287e-39
189.56935 2.8367939 87.834679 1.1246796e-38
190.88373 6.4430618 88.921295 1.1801055e-38
194.0983 9.8119297 87.124908 1.8802536e-38
196.55052 13.204259 86.426506 1.2628655e-38
198.86209 16.575588 85.910019 1.2719047e-38
201.3389 19.828335 85.062775 9.1245017e-39
204.99786 22.404913 81.990166 7.4653349e-39
205.63391 26.452065 84.396927 6.173873e-39
207.67378 29.783253 84.232086 1.4840285e-38
209.0674 33.625832 85.399658 1.6131021e-38
211.58025 36.548954 84.232086 1.631506e-38
213.53348 39.931808 84.232086 1.5668601e-38
215.21495 43.655716 84.895332 1.6223583e-38
217.31226 46.880638 84.562408 1.3458418e-38
220.32065 48.562775 81.679596 7.8305175e-39
221.51331 53.151775 83.741417 9.9553582e-39
223.29962 56.846062 84.232086 1.0416334e-38
225.49219 59.646431 83.417465 1.1615949e-38
227.25052 63.48777 84.067894 1.4654451e-38
229.2404 66.73394 83.904335 1.2721552e-38
231.754 67.987289 81.371376 1.1153862e-38
233.79378 70.589317 80.610893 8.4801931e-39
235.19252 76.249626 83.256424 1.1154969e-38
237.12312 79.593292 83.256424 1.0141179e-38
238.90379 84.073082 84.396927 1.1708143e-38
166.03157 -32.988716 85.399658 5.8998155e-39
169.29044 -29.098011 84.067894 7.0998048e-39
172.15039 -25.424397 83.096008 8.2047062e-39
175.08765 -21.793232 81.990166 6.3611495e-39
176.98889 -18.500416 81.990166 8.1143084e-39
175.63858 -15.902981 85.73922 9.3099678e-39
176.75305 -12.610018 86.7743 7.6529926e-39
178.62161 -9.1434708 86.949249 7.6515324e-39
181.19275 -5.6062813 86.253654 8.3887373e-39
183.85431 -2.1210308 85.399658 1.1524457e-38
185.45114 1.3165321 85.910019 1.2537916e-38
188.18214 4.7104702 84.895332 1.1800336e-38
190.26834 8.1040039 84.728539 1.4661665e-38
193.88672 11.177402 82.303108 1.6316883e-38
196.30756 14.345894 81.525192 1.4477271e-38
198.0999 17.653406 81.679596 1.1614503e-38
200.5558 20.698536 80.761848 1.5486719e-38
204.14595 23.077684 77.84626 1.0234819e-38
205.22368 26.636805 79.131798 1.0509597e-38
205.33771 31.009693 82.303108 1.1152454e-38
208.12526 33.609531 80.610893 1.5025022e-38
209.54077 37.264874 81.525192 1.4566572e-38
211.86377 40.084373 80.610893 1.3090728e-38
213.1825 43.979427 81.834587 1.3364429e-38
215.01373 47.35585 81.990166 9.9517218e-39
217.83231 49.244362 79.716873 6.2657127e-39
219.79251 52.252701 79.423256 6.1731569e-39
221.47664 55.750443 79.864494 1.2995296e-38
223.27911 59.067268 80.012665 1.6501262e-38
225.18054 62.165329 79.864494 1.4568365e-38
227.20137 64.892097 79.27726 1.1798529e-38
229.0397 68.075951 79.27726 9.1245017e-39
231.25703 69.847458 77.705994 6.5462428e-39
232.71637 74.443672 79.27726 8.2983228e-39
234.49771 77.913979 79.569794 7.6529561e-39
236.44289 80.515381 78.986862 1.1893599e-38
165.44814 -29.998558 82.618446 5.8987295e-39
169.97028 -25.839012 80.012665 5.1626035e-39
172.8279 -22.335546 78.986862 5.3480836e-39
173.82239 -19.37627 79.864494 7.9266774e-39
174.12881 -16.505041 81.525192 8.6678339e-39
176.01926 -13.230902 81.525192 8.5738447e-39
177.22183 -10.051771 82.303108 1.1247878e-38
179.13034 -6.7463856 82.303108 8.021031e-39
181.30106 -3.4279213 81.990166 8.5727727e-39
182.69043 -0.13614464 82.618446 1.179925e-38
185.59332 3.1338711 81.371376 1.4287463e-38
187.94852 6.3538818 80.761848 1.4013395e-38
190.37953 9.5083351 80.012665 1.6134988e-38
193.07974 12.535671 78.842461 1.3643534e-38
195.2085 15.616423 78.412415 1.3644253e-38
197.40926 18.630058 77.84626 1.4012344e-38
199.57846 21.600487 77.288223 8.4758869e-39
202.97198 23.890974 74.743202 7.3717001e-39
203.33015 27.709129 77.012192 8.4784092e-39
204.46547 31.248426 78.128311 1.3181828e-38
206.19781 34.448551 78.270103 1.2169488e-38
208.16464 37.456005 77.98703 1.3459871e-38
210.33173 40.224358 77.288223 1.3922642e-38
212.05592 43.406124 77.426979 1.3456623e-38
213.98068 46.349251 77.149963 1.1892196e-38
216.07315 49.009308 76.466003 9.9564232e-39
218.01642 51.80471 76.061424 8.5695245e-39
219.29277 55.744247 77.288223 1.3277297e-38
220.98097 59.059914 77.566238 1.2997437e-38
223.77032 59.912186 74.743202 1.3088919e-38
225.87975 61.947697 73.595268 1.060427e-38
226.71202 67.435051 76.466003 9.217405e-39
228.52324 70.381226 76.330666 7.7426406e-39
230.01021 74.501633 77.426979 7.5586207e-39
231.83824 77.472099 77.288223 6.9146835e-39
233.54198 81.011627 77.705994 8.6656872e-39
172.50769 -22.326725 74.485023 9.0323089e-39
171.52417 -20.027111 77.149963 7.7455259e-39
173.4501 -16.898451 77.012192 6.5459262e-39
174.01474 -14.031059 78.270103 7.4671328e-39
174.87531 -11.027746 79.27726 7.2813136e-39
176.03381 -7.9166508 80.012665 7.4664251e-39
178.28833 -4.6772213 79.569794 9.9557071e-39
180.39032 -1.4761639 79.27726 1.1983637e-38
182.84587 1.6921425 78.555244 1.3181115e-38
185.83621 4.7602959 77.149963 1.3182558e-38
187.62521 7.8587227 77.149963 1.2443912e-38
190.99747 10.670813 75.13385 1.4108845e-38
192.03281 13.857259 76.061424 1.4010535e-38
194.86618 16.590113 74.613892 8.5742104e-39
196.22423 19.723181 75.13385 1.0505644e-38
199.29161 22.161503 73.220421 6.3575482e-39
201.15535 25.017166 72.972633 5.9887629e-39
202.44516 28.186291 73.595268 1.2810521e-38
203.35576 31.682613 74.872963 1.6225391e-38
205.01387 34.749924 75.003181 1.4010888e-38
206.67775 37.827919 75.13385 1.3457361e-38
208.63618 40.633007 74.743202 1.7327406e-38
210.57437 43.409077 74.356598 1.3181834e-38
212.23349 46.475449 74.485023 1.4107055e-38
214.02283 49.381561 74.356598 8.2932991e-39
217.10809 50.286964 71.402031 8.3858521e-39
217.91385 54.600925 73.344948 1.0694006e-38
218.8192 59.052994 75.264969 1.3366972e-38
220.76855 61.645378 74.743202 1.2351e-38
222.9702 63.545837 73.469894 1.4382552e-38
224.54376 66.838058 73.847305 1.2814488e-38
226.37753 69.447098 73.469894 1.2075835e-38
227.8929 73.019699 74.101082 8.2958144e-39
229.29095 77.189323 75.264969 7.8352118e-39
231.10222 79.933052 75.003181 5.8065338e-39
169.09711 -20.706804 74.872963 5.3477137e-39
169.85939 -17.917576 75.794075 6.7295915e-39
170.35722 -15.112642 77.012192 5.8076198e-39
171.72369 -12.08449 77.426979 6.2689623e-39
170.96503 -9.2746582 80.012665 8.0203065e-39
173.52979 -6.0055523 79.27726 7.9295739e-39
175.50507 -2.8165169 79.131798 1.0509237e-38
179.03281 0.35308075 77.288223 1.115425e-38
181.43936 3.4263573 76.60183 1.3001023e-38
182.97757 6.5259533 76.874916 1.3736808e-38
185.79031 9.461544 75.661102 1.3278365e-38
187.98001 12.413067 75.13385 1.3738992e-38
191.05721 15.088788 73.469894 1.2815931e-38
192.85822 18.008741 73.344948 1.3735005e-38
194.55899 20.954353 73.344948 1.2538254e-38
197.15843 23.500298 72.118439 8.4776819e-39
198.74506 26.44087 72.239243 7.6526002e-39
199.83194 29.690201 73.096321 1.1339344e-38
201.19608 32.84853 73.595268 1.1985799e-38
202.41544 36.174583 74.356598 1.1523735e-38
203.49826 39.70853 75.396553 8.3883856e-39
205.86389 42.147064 74.356598 1.0417066e-38
207.73387 44.97821 74.101082 1.3735027e-38
209.93407 47.384277 73.220421 1.3271869e-38
211.43553 50.582523 73.595268 8.2904054e-39
215.44205 50.197403 69.002922 1.24479e-38
215.61157 55.267776 71.998047 7.2812968e-39
215.97461 60.481628 74.872963 1.585299e-38
217.98871 62.942238 74.228622 1.6316858e-38
220.22249 64.807877 72.972633 1.1799601e-38
221.77133 68.084152 73.344948 1.2995642e-38
223.65134 70.549828 72.849373 1.0139024e-38
224.78696 75.125244 74.485023 7.5593368e-39
226.47353 78.251801 74.613892 4.9782123e-39
228.05183 81.81456 75.13385 5.0714967e-39
